# .PCD v0.7 - Point Cloud Data file format
VERSION 0.7
FIELDS x y z
SIZE 4 4 4
TYPE F F F
COUNT 1 1 1
WIDTH 1611
HEIGHT 1
VIEWPOINT 0 0 0 1 0 0 0
POINTS 1611
DATA ascii
100.46522 89.464088 380.10678
100.42523 89.615601 380.08685
100.25371 89.847908 379.88104
100.22537 89.997314 379.8736
100.30872 89.92524 380.02795
100.36314 89.771896 380.05402
100.19418 90.151611 379.84799
100.27608 90.07357 380.02036
100.14807 90.309761 379.81622
100.23394 90.226936 379.99667
100.90131 87.72039 380.4563
100.79861 88.026123 380.40948
100.86647 87.869453 380.44983
100.69523 87.951317 380.25018
100.65034 88.104736 380.22394
100.64406 88.254517 380.21933
100.76851 88.178024 380.39044
100.92784 88.630241 380.68073
100.96659 88.477203 380.70468
100.85619 88.404419 380.53378
100.898 88.209442 380.55832
100.86414 88.034531 380.49176
100.6901 88.781723 380.34235
100.51897 89.53878 380.25732
100.46365 89.693268 380.22833
100.35036 90.001396 380.17596
100.30762 90.153801 380.15527
100.25884 90.306221 380.13364
101.32864 86.79995 380.61807
101.26925 86.949524 380.60818
101.49413 86.870804 380.80359
101.60979 86.711517 380.85403
101.40599 87.064484 380.79675
100.96162 87.733803 380.52197
101.14686 87.659904 380.70404
100.98822 87.944832 380.60889
100.32767 90.235947 380.28729
100.26923 90.38604 380.26749
101.87093 86.410133 380.92621
101.94728 86.472626 381.10184
101.60326 86.948227 380.95917
101.71724 86.787529 381.01303
101.83167 86.63015 381.05768
101.53742 87.092049 380.95697
101.02591 87.582588 380.54474
100.83336 87.658508 380.35226
101.22618 87.714607 380.81674
101.16614 87.867065 380.79297
101.07954 88.166794 380.77103
101.01036 88.324959 380.72568
100.3944 90.16156 380.448
100.4567 90.005547 380.47723
100.37925 90.081207 380.31253
100.33508 90.314468 380.4231
101.98457 86.552528 381.24103
101.78334 86.868263 381.1568
101.82466 86.946411 381.30069
101.70092 87.016609 381.13538
101.62019 87.167953 381.10919
101.44614 87.213318 380.90939
101.52824 87.324829 381.07013
101.34511 87.408089 380.86728
101.44068 87.484634 381.0224
101.12482 87.480171 380.62622
101.25308 87.26207 380.71045
101.15303 87.322243 380.6178
101.32983 87.787064 380.98462
101.22214 88.092766 380.9375
101.51978 87.556419 381.1886
101.40318 87.862068 381.13965
101.55779 87.635628 381.32855
101.10764 88.398933 380.88815
100.79161 89.319092 380.74207
100.68745 89.395416 380.5704
100.72817 89.469696 380.72162
100.63618 89.545792 380.55322
100.65482 89.626472 380.68753
100.57318 89.703262 380.51938
100.59342 89.771774 380.673
100.52059 89.848541 380.51019
100.52811 89.922905 380.64789
102.02298 86.624466 381.39154
101.75493 87.089104 381.28964
100.83254 89.391068 380.8959
100.90003 89.240517 380.91864
102.02884 86.706261 381.52078
101.84888 87.021347 381.44522
101.77206 87.173965 381.41666
101.21227 88.548325 381.1893
101.27599 88.397552 381.21204
101.1181 88.629082 381.01236
101.17203 88.475922 381.03714
101.15447 88.705719 381.15753
101.07312 88.780312 380.99457
101.10918 88.855118 381.14218
100.92798 89.315277 381.06393
100.9863 89.170334 381.07544
101.86253 87.093979 381.58908
101.9422 86.93045 381.61765
101.34034 88.246803 381.23413
101.3615 88.322777 381.37601
101.42617 88.168144 381.40536
101.27628 88.488914 381.3295
101.17035 88.782661 381.2973
101.04939 89.01313 381.10855
101.11927 88.934967 381.27438
101.06116 89.091927 381.24426
101.00031 89.246147 381.21713
101.72126 87.405273 381.5264
101.80653 87.329666 381.69193
101.4378 88.245438 381.54202
101.48665 88.100029 381.55219
101.16508 88.881317 381.43872
101.15858 88.959473 381.56332
101.06406 89.186424 381.43262
101.87246 87.258041 381.84741
101.82036 87.407257 381.82944
101.74221 87.482071 381.66675
101.75719 87.560432 381.80313
101.57746 87.717384 381.46179
101.62894 87.478813 381.36301
101.61095 87.871574 381.73947
101.68029 87.719032 381.76648
101.52457 87.86322 381.44852
101.55546 88.02005 381.72263
101.47284 88.018837 381.42099
101.49803 88.176682 381.69205
101.87368 87.336189 381.98138
101.62392 87.948616 381.87762
101.56209 88.10305 381.85004
101.86438 87.414467 382.11234
101.56674 88.182297 381.98328
101.84936 87.462219 382.27771
101.61988 88.112717 382.13495
101.5621 88.264526 382.11057
101.66132 88.046814 382.30566
101.00236 89.501602 382.15714
101.80132 87.004234 382.91788
101.75881 87.155304 382.90134
101.74419 87.076645 383.04333
101.7084 87.228333 383.02493
101.68865 87.451378 382.87222
101.65305 87.602921 382.85403
101.64022 87.531693 382.98953
101.67494 87.379868 383.00751
101.61479 87.754318 382.83511
101.55764 87.837189 382.94949
101.60123 87.683952 382.97028
101.57484 87.905342 382.81543
101.51204 87.992432 382.92807
101.53169 88.060478 382.79541
101.46669 88.142891 382.90707
101.66792 87.089241 383.29144
101.7266 87.005783 383.17722
101.6427 87.241211 383.27634
101.63217 87.460526 383.12677
101.61742 87.392616 383.26111
101.46375 88.073097 383.04443
101.4174 88.296333 382.8847
101.41691 88.223289 383.02411
101.36461 88.449211 382.86145
101.3065 88.530144 382.97552
101.36417 88.377701 383.00003
101.30974 88.598709 382.83743
101.2417 88.71994 382.8978
101.69044 86.938599 383.30634
101.76192 86.861084 383.17203
101.17699 88.801208 383.01166
101.25359 88.61409 383.0907
101.62316 87.021378 383.41788
101.71499 86.786812 383.30365
101.64874 86.717018 383.42307
101.5656 86.802826 383.54572
101.60715 87.172119 383.40503
101.63532 86.869972 383.42838
101.12312 88.877159 383.13013
101.20684 88.692421 383.20981
101.49679 86.886269 383.65903
101.16403 88.773911 383.32877
101.08127 88.952171 383.2536
101.08795 88.93969 383.56775
101.19009 88.702805 383.47519
101.04694 89.029579 383.37738
101.44242 87.118584 383.76675
101.36858 86.90152 383.88995
101.11082 88.867157 383.71414
100.96616 89.196869 383.32343
101.50121 87.03611 383.65213
100.9788 89.192047 383.61987
101.04914 89.022148 383.68716
101.2952 86.83474 384.00763
100.94142 89.270546 383.74219
101.00594 89.103996 383.80606
101.3064 86.984215 384.0033
101.16264 87.000519 384.2312
100.89869 89.350327 383.86212
100.95658 89.184975 383.92352
101.25204 87.216515 384.11337
101.12023 87.232109 384.34354
101.13817 87.381584 384.3399
100.90105 89.266815 384.03882
100.80312 89.510788 384.1001
100.75668 89.664124 384.06433
101.03632 87.165695 384.45795
100.84573 89.349922 384.15375
100.79881 89.431297 384.27121
100.715 89.740707 384.18665
100.94215 87.099785 384.56927
100.7213 89.66777 384.32388
100.72118 89.59465 384.45987
100.97235 87.248444 384.57065
100.9061 87.331688 384.6814
100.99293 87.397621 384.57034
100.92429 87.480827 384.6799
100.83865 89.279366 384.29086
100.77384 89.288757 384.5426
100.82503 89.208252 384.42639
100.7453 89.440742 384.52664
100.86424 87.713531 384.78464
100.93321 87.630569 384.67435
100.93436 87.780754 384.66736
100.93256 87.930763 384.6586
100.79583 87.902969 384.8992
100.63886 88.904144 385.10172
100.70002 88.932503 384.94635
100.92173 88.232292 384.64154
101.06396 87.915565 384.42813
100.80143 88.097008 384.88409
100.85991 88.314613 384.75409
100.74929 88.477768 384.9808
100.7416 88.629166 384.97333
100.72324 88.781715 384.96143
100.65314 88.729507 385.12817
100.51559 87.828552 385.35532
100.47086 87.912498 385.47629
100.47912 88.06002 385.46912
100.40529 87.993401 385.58752
100.42669 88.141808 385.58499
100.36627 88.214455 385.71811
99.926689 87.4272 385.7421
99.857193 87.512543 385.84726
99.919632 87.65731 385.85953
100.35978 88.755226 385.80365
99.749077 87.596062 385.93433
100.23543 88.919121 386.03497
100.21959 89.601654 386.12759
100.15614 89.384781 386.25986
100.15549 89.53447 386.24722
100.15865 89.684196 386.24088
100.07163 89.469574 386.37048
100.07265 89.618698 386.35629
99.975235 89.555344 386.47525
73.276276 87.721519 381.09427
73.266731 87.368202 381.14404
73.173973 87.626999 380.95633
73.722206 87.768509 381.64877
73.707245 87.589058 381.67181
73.468307 87.939262 381.29767
73.268639 87.869225 381.05429
73.334518 88.008919 381.10397
73.425812 87.610855 381.31128
73.391312 88.158699 381.1228
73.496506 88.081947 381.29343
73.492119 88.431633 381.13132
73.597473 88.375404 381.30136
73.532211 88.227364 381.28287
73.277939 88.360603 380.77264
73.371399 88.456314 380.91278
73.230453 88.217148 380.79633
73.737808 88.702133 381.34293
74.017357 88.888374 381.57858
73.942612 88.496078 381.64227
73.771767 88.147018 381.59772
73.741432 87.952316 381.62488
73.586563 88.084122 381.4021
73.597374 87.281769 381.60132
73.798416 88.881561 381.34357
74.097641 88.823677 381.68829
75.428368 88.316002 382.93106
75.389526 88.168907 382.93326
75.203156 88.249489 382.75018
76.982925 90.723457 383.4082
76.886131 90.650536 383.24985
77.029297 90.848572 383.13397
76.754417 90.515053 383.22559
76.989822 90.837372 383.05402
77.204529 90.997383 383.18433
77.156364 90.938911 383.31415
77.104553 90.865494 383.43515
77.302795 91.072479 383.34518
77.23983 91.006943 383.46652
75.539032 88.611832 382.9545
75.773415 88.507805 383.24979
75.465157 88.460258 382.91983
75.569107 88.811722 382.93286
75.774368 88.830116 383.1514
75.569138 88.22419 383.1076
75.616463 88.95491 382.93015
75.904594 88.870506 383.29156
75.7761 89.197891 382.98602
75.827866 88.976151 383.15372
75.681717 89.049934 382.95563
75.900787 89.122925 383.16843
75.829018 89.315414 382.98227
75.980995 89.490288 383.03918
76.052338 89.410553 383.18726
75.975395 89.267303 383.17804
76.145798 89.557236 383.21155
76.043686 89.61142 383.03827
76.25087 89.707764 383.2446
76.192055 89.785538 383.10257
76.245407 89.926659 383.10294
76.423958 89.994865 383.27487
76.333008 89.848892 383.25378
76.643234 90.285736 383.32922
76.678246 90.21154 383.47513
76.546135 90.216125 383.18771
76.85463 90.571724 383.3725
76.736961 90.434547 383.35132
77.485703 91.222801 383.39349
77.402824 91.158775 383.50989
77.66584 91.370979 383.43866
77.552963 91.291794 383.54422
77.705017 91.434502 383.58228
75.983955 89.043358 383.31754
76.068962 89.194313 383.35214
76.125328 89.338531 383.35229
76.186234 89.480354 383.35297
76.475731 89.920044 383.42688
76.618858 89.994408 383.60501
76.551743 90.134232 383.29999
76.718666 90.142708 383.63321
76.746147 90.349426 383.47357
76.796059 90.284019 383.63986
76.958221 90.643791 383.53223
76.845016 90.496132 383.50119
77.623329 91.358658 383.69421
77.859642 91.589569 383.62378
77.782951 91.511589 383.73813
77.918823 91.637672 383.66666
76.236198 89.201202 383.56293
76.252113 89.305252 383.54346
76.280037 89.48999 383.49496
76.341949 89.55777 383.54395
76.275291 89.626541 383.37582
76.425667 89.703041 383.56033
77.931976 91.647018 383.77261
77.886551 91.581398 383.89984
77.738373 91.439323 383.86353
76.596008 89.774826 383.74527
76.525429 89.630341 383.73853
76.446381 89.461632 383.71851
76.523987 89.850777 383.58722
76.67672 89.920074 383.75998
76.8629 90.212051 383.80322
76.817963 89.949692 383.91925
76.966682 90.360069 383.83319
76.889175 90.429459 383.66071
76.980766 90.571648 383.67474
77.890945 91.518539 384.04846
78.007706 91.67527 383.94666
78.035736 91.651985 384.07504
78.381104 91.939629 384.16602
78.210945 91.795715 384.12186
78.343697 91.955803 383.97418
78.217148 91.837303 383.98529
76.617073 89.538742 383.87814
76.733231 89.700005 383.93814
76.787399 89.845062 383.93655
77.17836 90.432968 384.03876
77.0056 90.27066 383.94299
77.070969 90.505615 383.85901
77.394928 90.639999 384.20023
77.227356 90.349075 384.15811
78.049011 91.58532 384.22324
78.353958 91.865402 384.29425
78.193901 91.721428 384.25214
78.50988 92.004997 384.33133
78.493202 92.050331 384.13351
78.643829 92.142143 384.28598
76.882286 89.618935 384.11127
77.06514 89.537445 384.29617
76.756088 89.325165 384.07397
76.944283 89.765984 384.12228
76.959419 89.902458 384.08597
77.050041 90.05127 384.10986
77.308258 90.12645 384.34769
77.423187 90.420395 384.36301
77.500893 90.567177 384.38092
78.506897 91.935333 384.47009
78.651855 92.093391 384.44739
77.12973 89.685326 384.31506
77.279221 89.980469 384.3602
77.335999 90.270317 384.32809
77.121521 90.197136 384.11786
77.322815 90.716774 384.04681
77.48494 90.78511 384.22125
77.59996 90.934662 384.2576
77.679825 90.858444 384.41861
77.574738 90.710106 384.38583
77.802277 90.991661 384.47141
77.699883 91.075027 384.27219
77.881477 91.14502 384.45721
77.82164 91.223892 384.3089
77.931717 91.3629 384.32648
77.995148 91.288277 384.48215
78.113907 91.431305 384.50955
78.074898 91.509804 384.36691
78.266243 91.581108 384.55783
78.68705 92.040871 384.60858
78.533745 91.863708 384.61761
77.044884 89.389709 384.30841
77.31208 89.455528 384.52255
77.27224 89.306595 384.50665
76.974548 89.244049 384.27252
77.335388 89.603668 384.51379
77.449036 89.898575 384.53656
77.601364 89.670197 384.73093
77.202904 89.83313 384.33536
77.486343 90.046753 384.54196
77.555519 90.343124 384.54214
77.500908 90.194946 384.5274
77.627457 90.489952 384.55768
77.714478 90.636482 384.57846
77.75695 90.836189 384.51843
77.995346 91.07267 384.63934
78.0942 91.216568 384.65854
78.145905 91.348167 384.62357
78.286331 91.299927 384.85059
78.184013 91.142792 384.82739
78.439644 91.646637 384.73489
78.350777 91.433197 384.8266
78.877472 92.074173 384.84277
78.750351 91.86409 384.95584
78.871811 92.129356 384.75479
77.274132 89.156631 384.51959
77.562523 89.221237 384.73257
77.283844 89.005936 384.5369
77.612526 89.068398 384.75867
77.684235 88.914627 384.78741
77.537682 89.372437 384.71341
77.642227 89.817886 384.73349
77.706146 90.264236 384.72495
77.655258 90.113724 384.69989
77.802017 90.453537 384.76077
78.09169 90.995964 384.80481
78.478951 91.574348 384.88632
78.90136 92.004593 384.99139
77.921875 89.13121 384.98746
77.984993 88.979431 385.00342
78.09626 88.822021 385.05225
77.868477 89.283554 384.96915
77.808746 89.738243 384.91998
77.798363 89.588615 384.92667
77.73938 89.898239 384.81781
77.977959 89.808548 385.09631
77.836372 89.897156 384.92734
77.990936 90.10836 385.08664
77.893959 90.335625 384.91888
77.947983 90.481987 384.92331
77.884644 90.705544 384.72363
78.012093 90.850342 384.78976
78.005623 90.607346 384.93146
78.170822 90.923592 384.97421
78.226913 90.84848 385.12546
78.152542 90.697609 385.09958
78.230362 91.063492 384.96759
78.409836 91.359665 385.01627
78.443153 91.287277 385.16525
78.350502 91.134727 385.13223
78.500183 91.498848 385.02695
78.89592 91.932388 385.12747
78.766174 91.79686 385.10324
79.092842 92.221214 384.93488
78.142944 89.200615 385.17212
78.341927 89.415039 385.38022
78.4058 89.26413 385.39722
78.148819 90.029831 385.26974
77.843399 90.186119 384.89966
78.054649 90.406746 385.09961
78.094246 90.552261 385.09213
78.882034 91.862389 385.26248
79.012947 92.001068 385.29117
79.054794 92.077347 385.16934
79.157295 92.18956 385.11487
79.230507 92.240479 385.22363
79.117645 92.077095 385.4552
77.803902 89.438309 384.93079
78.006927 89.509216 385.11261
77.977585 89.659279 385.09882
78.212967 89.577499 385.30939
78.161224 89.729057 385.28586
78.16291 89.878738 385.29047
78.360298 89.797852 385.49753
78.520081 90.019096 385.65442
78.322212 90.250038 385.44391
79.221977 92.160889 385.62457
79.095497 92.010361 385.58929
78.530304 89.86866 385.67352
78.512527 89.718941 385.66534
78.672699 90.08886 385.81717
78.507469 90.320038 385.64035
78.342003 90.399521 385.45624
78.48922 90.471031 385.61716
78.154495 90.179306 385.26636
78.348763 90.548813 385.44098
78.505173 90.619858 385.6167
79.199081 92.091751 385.7576
78.666763 89.78994 385.83057
78.705078 90.240334 385.85336
78.643715 90.54216 385.79135
78.663506 90.69162 385.79871
79.182137 92.017738 385.88873
78.838165 90.1604 386.00061
78.780457 90.615181 385.96323
78.796204 90.465828 386.00568
78.77729 91.287422 385.80914
78.819885 91.431366 385.80197
78.896614 91.359001 385.96945
78.860161 91.211563 385.96924
78.89814 91.577354 385.8205
78.966705 91.489937 386.00763
78.9953 91.728081 385.85013
79.119568 91.786385 386.0444
79.086967 91.874344 385.87057
79.181618 91.939667 386.01843
79.285088 92.08934 386.04855
78.879753 90.529427 386.16422
78.816017 90.397072 386.10678
78.872536 90.687668 386.11578
78.795448 90.764664 385.97256
78.905251 90.839218 386.13965
78.948051 91.150017 386.15063
78.942444 90.986298 386.13959
78.987755 91.284431 386.13818
79.220703 91.867729 386.16525
79.306396 92.014015 386.18765
79.409897 92.163132 386.21808
79.052895 91.055817 386.31
79.263695 91.846001 386.25247
79.357826 91.940872 386.33972
79.451149 92.091347 386.37122
102.52133 85.44104 380.59003
102.4521 85.609482 380.53909
102.52981 85.520042 380.72467
102.53674 85.375015 380.71219
102.47937 85.686584 380.6777
102.55275 85.454216 380.84525
102.5456 85.599083 380.85745
102.50777 85.759987 380.82367
102.55949 85.698769 381.00275
102.62411 85.380257 381.00528
102.605 85.607948 381.13385
102.59194 85.444054 381.98743
73.068794 87.363495 380.81339
73.086494 87.530571 380.81647
73.175034 87.446053 380.98901
73.149109 87.293175 380.9678
73.243317 87.225601 381.1308
73.485046 87.148071 381.48227
73.392448 87.261719 381.34189
102.52322 80.93634 379.93881
102.61718 81.062164 379.93579
102.58572 80.997093 380.06509
102.48236 80.869583 380.06772
102.71158 81.15313 380.08798
102.39238 80.688408 380.22287
102.30791 80.715385 380.02237
102.49807 80.820335 380.21725
102.69181 81.089333 380.22281
102.5936 80.951019 380.22067
102.82835 81.300339 380.10327
102.80164 81.233719 380.23453
102.92654 81.444664 380.11197
102.90736 81.377533 380.24377
102.98968 81.578773 380.0961
102.99233 81.521896 380.24573
103.04263 81.722839 380.08588
103.05714 81.666924 380.24091
103.06088 81.60907 380.38873
103.21424 82.461777 380.02054
103.23156 82.610641 380.00696
103.2844 82.549812 380.17578
103.23579 82.761169 379.99417
103.29992 82.698265 380.15744
103.21062 82.910156 379.97586
103.30063 82.84774 380.14078
103.12224 83.070847 379.90369
103.27475 82.998901 380.10956
103.25124 83.147163 380.09369
103.13561 83.514717 379.85587
103.17287 83.599815 380.00012
103.1991 83.452065 380.01602
102.31357 80.491341 380.37579
102.25981 80.411133 380.26486
102.30158 80.512383 380.19153
102.36036 80.661942 380.18976
102.41953 80.634087 380.37915
102.69547 81.033821 380.37073
102.62851 80.925835 380.37054
102.78983 81.176529 380.37567
102.88741 81.318878 380.3815
103.11938 81.756775 380.38632
103.32343 83.087318 380.24304
103.27818 83.386246 380.19562
103.20939 83.303627 380.03253
103.3259 83.326279 380.34839
103.34346 83.176888 380.37274
103.24798 83.53891 380.15912
103.10792 83.760475 379.94098
103.20671 83.691689 380.12347
103.05548 83.908279 379.91519
103.15044 83.846359 380.08078
103.08982 83.995728 380.05035
102.78168 81.117035 380.51672
102.63747 80.876678 380.51968
103.11298 81.695084 380.52557
103.04075 81.553505 380.52948
103.22836 83.79583 380.23981
103.27499 83.629166 380.28757
103.08432 81.637177 380.66266
103.14369 81.783646 380.65768
103.35662 83.026756 380.39825
103.35281 83.117638 380.52142
103.35671 82.967712 380.54425
103.30495 83.475578 380.32355
103.30432 83.568321 380.44299
103.27289 83.74884 380.39084
102.95083 84.475739 380.22342
102.95462 84.389687 380.13016
102.83053 84.633179 380.16577
103.1019 81.726257 380.7916
103.02895 81.587654 380.79312
103.35049 82.818108 380.56528
103.33637 82.909569 380.685
103.32209 82.760994 380.70319
103.33965 83.036301 380.67264
103.25212 83.886276 380.47409
102.82399 84.73774 380.27173
103.04021 84.433884 380.42285
103.05547 84.341446 380.30447
102.94897 84.567459 380.34256
102.70113 84.807335 380.0867
102.7132 84.89357 380.21674
103.03996 81.673706 380.91959
103.09416 81.819283 380.91382
103.29244 82.864319 380.85968
103.28322 82.704475 380.83691
102.82516 84.840256 380.44321
102.72821 84.969582 380.35986
103.02173 81.764946 381.03873
102.95514 81.622658 381.03925
103.25908 82.796555 380.95337
103.23375 82.648697 380.96796
102.61549 85.143478 380.28738
102.07883 80.479179 380.96353
102.25155 80.616608 380.94785
102.11225 80.576202 381.09332
102.9322 81.711357 381.15866
102.98557 81.857895 381.15219
103.20315 82.741348 381.08218
103.14418 82.20649 381.00763
103.17802 82.354103 380.99515
103.07485 82.391304 381.2345
102.1183 80.663948 381.21832
101.94528 80.504128 381.19968
102.94263 81.950356 381.26361
103.06621 81.912132 381.02954
103.0257 82.254234 381.26523
103.07129 82.151459 381.13245
103.20667 82.501305 380.98184
101.97873 80.617195 381.32086
101.9552 80.700371 381.44189
102.97791 82.81839 381.55396
102.56032 85.357872 382.15729
72.964806 85.411354 379.68573
72.960556 85.56015 379.66385
72.900696 85.504799 379.78952
72.89756 85.356651 379.81128
72.93084 85.653381 379.77505
72.896736 85.25444 379.79846
72.864479 85.449219 379.92206
72.882446 85.15464 379.83047
72.870255 85.297714 379.95029
72.86982 85.59697 379.90317
72.977791 85.794617 379.76227
72.890854 85.744934 379.88788
72.91214 85.952171 379.72742
72.910606 86.048019 379.85007
72.859909 85.986809 379.98105
72.8526 85.83741 380.00085
72.979576 86.105423 379.72458
72.979195 86.192978 379.84503
72.882172 85.114273 379.97861
72.899719 85.235687 380.11264
72.860619 85.537804 380.04901
73.074844 86.335579 379.84766
73.028114 86.427635 379.95157
72.953697 86.278435 379.96497
72.937202 85.323708 380.24637
72.876144 85.627541 380.17612
72.902618 86.372429 380.07358
72.911659 86.521767 380.05487
72.923531 86.725914 379.89102
72.903419 86.821404 380.00638
72.89502 86.66787 380.02655
73.027756 85.332443 380.44476
72.983154 85.236328 380.32928
72.995262 85.652031 380.47867
72.947578 85.564171 380.34283
72.907898 85.71553 380.3103
72.858658 86.465668 380.18317
72.859077 86.613831 380.16211
72.863869 86.763657 380.1412
72.941414 86.96376 379.99594
72.890823 86.910347 380.12653
72.946999 87.061966 380.12021
72.951019 85.804596 380.44247
72.88575 87.002388 380.24866
72.974541 87.204651 380.10815
72.916275 87.148979 380.2355
73.020363 87.353394 380.09656
72.945938 87.295731 380.22272
73.097618 87.50415 380.09195
72.99189 87.444237 380.21304
73.051422 85.74012 380.61505
73.113602 85.553909 380.66464
73.05661 85.441467 380.52557
72.946007 87.414169 380.35907
72.9095 87.240654 380.3573
73.131233 85.800781 380.77078
73.169815 85.630608 380.7861
73.006111 85.892868 380.5766
72.978249 86.040977 380.56067
73.041908 86.12854 380.69641
72.969337 86.442619 380.64383
73.082619 86.37516 380.82394
72.943886 86.191406 380.52945
72.884048 86.495171 380.46286
72.945358 86.590881 380.62637
72.9086 86.344406 380.49127
72.869507 86.645195 380.43848
72.917076 86.733536 380.57373
72.935791 87.330246 380.49326
72.964798 87.490845 380.48718
73.350891 85.92762 381.10928
73.28746 85.823555 381.00403
73.315987 86.236366 381.15759
73.155167 86.064522 380.86731
73.197945 85.893486 380.89581
73.197594 86.299995 380.98834
72.998932 86.670662 380.73422
72.989456 86.820007 380.71637
73.002365 87.616219 380.43747
73.000961 87.431435 380.65363
72.986061 87.268883 380.66049
73.393456 86.043396 381.20059
73.370453 86.178299 381.21991
73.085876 86.755821 380.88162
73.113976 86.604523 380.91608
73.05616 87.204918 380.8096
73.156326 86.451294 380.95709
73.274986 86.386597 381.13016
73.241768 86.536499 381.10654
73.203041 86.689758 381.06464
73.152885 87.140144 380.98831
73.380058 86.447433 381.30933
73.321327 86.623528 381.24625
73.251633 87.076057 381.15512
73.445068 86.557434 381.42618
73.293945 86.774521 381.21674
73.422554 86.705017 381.41135
73.270897 86.925438 381.18643
73.406425 86.864441 381.39511
73.367088 87.010452 381.3342
73.358406 87.160164 381.31088
76.758705 85.853806 382.57239
76.817726 85.991829 382.56259
76.79451 85.939125 382.70609
76.70018 85.791641 382.70258
76.86026 86.084343 382.70221
76.814529 86.024963 382.8367
102.14631 80.271034 380.2691
102.1859 80.35302 380.39355
102.05734 80.219589 380.39499
102.53635 80.785637 380.38159
102.11499 80.325272 380.52353
102.41891 80.607895 380.53571
102.26209 80.460167 380.52713
102.53941 80.740036 380.53143
102.78722 81.109726 380.6344
102.70717 80.972969 380.65237
102.16335 80.417816 380.65036
102.33463 80.556709 380.66086
102.22851 80.518166 380.78125
102.05553 80.382439 380.76935
102.74393 81.077751 380.77704
102.65546 80.934532 380.78931
102.88483 84.196884 379.87286
102.9265 84.293793 380.00244
103.03232 84.143066 380.065
102.39507 80.656128 380.79092
102.53816 80.792427 380.79434
102.66991 81.040688 380.90384
103.13696 83.983017 380.14166
103.21686 83.933449 380.31332
103.14861 84.084862 380.25693
103.05126 84.243477 380.18393
103.14143 84.189575 380.3656
103.24877 83.843315 380.62308
103.22179 83.990883 380.5784
103.17872 84.13662 380.53107
103.2096 84.034477 380.42621
100.09198 88.980972 379.60254
100.19809 89.077667 379.71774
100.23057 88.930161 379.75607
100.48213 88.177361 380.03116
100.38758 88.333183 379.94418
100.61932 88.269608 380.18781
100.32685 89.170532 379.87207
100.1812 89.225304 379.68561
100.31049 89.318405 379.84302
99.634682 91.186386 379.44421
99.588158 91.328491 379.41949
99.69236 91.286545 379.57022
99.725006 91.383453 379.70312
99.415634 91.724739 379.40198
99.328789 91.850342 379.48157
99.466164 91.730247 379.6376
99.722366 91.480057 379.82156
99.416649 91.807297 379.65036
99.3965 91.91111 379.75455
99.546532 91.729485 379.85492
99.281693 92.054443 379.69559
99.382057 91.988113 379.88275
99.181168 92.181511 379.76898
72.941826 84.596451 379.29129
72.944092 84.566467 379.46027
72.925255 84.460495 379.30231
72.97818 84.739639 379.25793
72.950821 84.706711 379.44034
73.014839 84.827805 379.37701
72.962486 84.78875 379.57104
73.094658 84.938469 379.51044
73.055115 85.086151 379.46738
73.016342 85.04258 379.60797
73.071098 85.189453 379.57666
72.935951 85.149117 379.70435
72.924675 85.004501 379.73102
73.010513 85.292046 379.66928
72.891174 84.712883 379.76111
72.897781 84.798775 379.8934
72.915901 84.580917 379.82993
72.935959 84.664825 379.95801
73.019485 84.627365 380.117
72.890358 84.945114 379.86142
72.915466 84.86264 379.72787
73.120491 84.502419 380.16589
72.917534 84.916138 380.02765
72.951118 84.80645 380.06717
73.031403 84.719017 380.24387
73.147278 84.547066 380.32571
73.007126 84.861137 380.21405
72.953972 84.677017 380.37451
76.121078 84.73838 381.76407
76.227814 84.849228 381.7449
76.199364 84.816849 381.89572
76.060982 84.76181 382.01282
76.272522 84.997086 381.7178
76.281433 84.954529 381.87985
76.300888 85.098816 381.83832
73.074791 87.718475 380.189
73.123016 87.857918 380.16141
73.092216 87.818596 380.30573
73.037109 87.680328 380.32883
73.158348 88.002602 380.13202
73.143028 87.964256 380.28677
73.171074 88.104248 380.25159
75.957306 84.679703 381.86395
76.328911 85.051773 382.00375
76.239449 84.918221 382.01859
76.093895 84.85862 382.13235
76.348778 85.19368 381.99167
73.055313 87.776062 380.44507
73.141571 88.061455 380.39301
73.222099 88.237816 380.22757
73.187263 88.211456 380.37302
73.34581 88.399307 380.22696
73.265411 88.354675 380.35599
73.220245 88.311478 380.49463
73.357964 88.492813 380.34351
76.42997 85.212593 382.12061
76.309929 85.048416 382.12491
73.018845 87.588005 380.62723
73.078575 87.876007 380.56381
73.043968 87.731598 380.59079
73.295746 88.452698 380.47757
73.46431 88.638809 380.33234
73.37204 88.579277 380.45969
73.090752 87.830765 380.71814
73.079674 87.685112 380.75845
73.336617 88.549355 380.60226
73.407318 88.69207 380.58606
73.149712 87.781807 380.88077
73.463425 88.788589 380.7135
73.397064 88.648682 380.73431
73.160416 87.927658 380.84976
73.197052 88.077644 380.8378
73.261627 88.023781 380.99405
73.299591 88.17028 380.97397
73.476677 88.778191 380.8273
73.413506 88.598183 380.88318
73.33252 88.503876 380.75098
73.475342 88.550507 381.05298
73.508804 88.694923 381.02563
73.546928 88.898567 380.92361
73.625717 88.78965 381.17511
73.562721 88.798569 381.06696
73.601654 88.643394 381.2005
73.728142 88.856491 381.2757
86.205093 93.891418 383.78812
86.298149 94.032837 383.74872
86.164185 94.002335 383.86823
86.063095 93.854179 383.89609
86.011742 93.95372 383.99326
86.048615 94.219765 383.90042
85.982101 94.201416 384.04111
85.738724 94.398987 383.94495
76.411949 90.515854 382.87552
76.68351 90.639252 382.90985
76.670265 90.566887 383.0379
76.861168 90.769394 382.92093
76.851013 90.700424 383.05356
77.176895 90.9813 383.07886
77.370369 91.125572 383.09875
77.306328 91.077393 383.22888
76.286041 89.14978 383.6362
76.396622 89.291588 383.71927
76.565506 89.381882 383.87891
78.13932 91.784813 383.69186
78.037605 91.722404 383.81052
78.199821 91.84597 383.81403
78.505676 92.096817 383.98541
78.663338 92.194435 384.14563
78.814842 92.281662 384.2995
78.805779 92.230362 384.44299
78.984482 92.363907 384.45605
78.836754 92.186607 384.60388
79.003754 92.320412 384.61298
79.205521 92.504158 384.48511
79.182571 92.449661 384.62354
79.420288 92.633575 384.50781
79.396561 92.587234 384.64966
79.039474 92.2705 384.77087
79.383041 92.539093 384.79352
79.580536 92.67395 384.81323
79.195625 92.401428 384.7746
79.567307 92.637283 384.96274
79.814583 92.814011 384.84283
79.727829 92.756416 384.96521
80.050171 92.954514 384.87115
79.935005 92.895546 384.98877
80.147491 93.029678 385.0119
79.274475 92.316208 385.10291
79.240173 92.358032 384.93979
79.394226 92.446075 385.09442
79.391861 92.495201 384.94647
80.062553 92.987915 385.13708
80.460358 93.23719 385.1716
80.437515 93.232651 385.32117
80.193398 93.076645 385.28598
80.377083 93.170616 385.03769
79.695068 92.719368 385.10617
79.644691 92.63855 385.39343
80.579765 93.350609 385.32214
79.957756 92.908089 385.4071
80.091515 93.006432 385.55905
79.887756 92.8284 385.68814
80.670959 93.455414 385.46008
80.576225 93.41497 385.58365
80.419693 93.275146 385.57651
79.824661 92.813301 385.25607
79.57737 92.55191 385.6731
80.313812 93.16655 385.43332
80.921722 93.597458 385.49203
80.770836 93.555222 385.60184
81.265938 93.673851 385.54782
81.046455 93.644363 385.63577
79.775635 92.738106 385.54559
79.696945 92.64901 385.82086
80.687241 93.521431 385.73007
80.49968 93.372612 385.71198
79.843651 92.787476 385.82553
79.55201 92.51001 385.81592
80.62928 93.481865 385.86444
80.791443 93.545853 386.01929
80.855354 93.567726 385.884
79.802673 92.742432 385.96277
79.677116 92.611168 385.96811
80.385864 93.28627 385.97855
80.22934 93.146027 385.97043
80.435211 93.327271 385.84283
80.29805 93.203087 385.84302
80.564293 93.427925 385.99365
80.446136 93.336037 386.01031
79.906662 92.835732 386.10416
79.783493 92.697479 386.10629
80.353241 93.245155 386.11935
80.193008 93.099777 386.10687
80.084961 93.017334 385.96854
80.735184 93.51342 386.15338
79.790268 92.653091 386.25854
79.903038 92.792305 386.25357
80.043091 92.97065 386.10471
80.022003 92.924728 386.24686
80.190811 93.062874 386.25934
80.360954 93.196121 386.26935
80.857109 93.611618 386.29953
80.715958 93.485405 386.2977
79.931114 92.758072 386.42328
80.345047 93.151947 386.41501
80.518326 93.306572 386.43008
80.730659 93.5672 386.41614
80.894066 93.719765 386.41507
80.430305 93.257629 386.54526
80.523834 93.40004 386.53043
80.703568 93.661301 386.52972
80.612007 93.534248 386.52777
80.300285 93.364662 386.64444
80.332008 93.204933 386.66275
91.990746 64.945694 378.79465
92.020187 65.007561 378.94852
92.064682 64.789467 378.8197
91.708122 66.106461 378.6889
91.753548 66.250397 378.68839
91.747597 66.186852 378.83304
91.763092 66.394516 378.67142
91.656342 66.333664 378.79291
91.701004 66.531845 378.66736
91.615959 66.469711 378.76044
92.080513 66.715637 378.75314
91.738632 66.635529 378.8017
91.690216 66.845467 378.63522
91.580498 66.773476 378.73975
91.712639 66.996582 378.6463
91.747978 66.940437 378.79333
91.688843 67.143127 378.60263
91.762955 67.082108 378.79056
91.673401 67.290665 378.62329
91.750244 67.230362 378.76495
91.656128 67.441895 378.59756
91.733917 67.379333 378.75372
91.720474 67.678444 378.73773
91.786552 67.297348 378.88336
91.775925 67.615356 378.88199
91.675911 67.592194 378.59238
92.093697 64.938683 379.11661
91.968269 65.151253 378.93237
92.124481 65.022552 379.26324
91.969826 65.299675 378.92282
91.92585 65.442696 378.91467
91.992264 65.389107 379.0621
91.85437 65.591652 378.87732
91.935806 65.532822 379.03839
91.889076 65.674911 379.02402
91.892059 66.270874 379.00348
91.840012 66.570557 378.98328
91.781921 67.013046 378.91602
91.738266 66.862129 378.91144
91.763214 67.764603 378.86679
91.649216 68.72451 378.64856
91.631325 68.87616 378.64139
91.672058 68.80822 378.79449
91.704285 68.659058 378.8172
91.960144 65.455803 379.19763
91.841225 65.818542 378.98877
91.947449 65.981941 379.04559
91.904343 65.757454 379.16251
91.979439 65.91983 379.17844
91.979164 66.062675 379.16818
91.972404 66.129059 379.04544
91.968773 66.216629 379.14523
91.783745 66.711876 378.95908
91.898438 66.661377 379.09442
91.854828 66.804794 379.08887
91.840439 66.951881 379.0679
91.806465 67.850922 379.01328
91.818192 67.391167 379.03067
91.811615 67.700256 379.01688
91.746025 68.745476 378.94144
91.750443 68.597733 378.96094
91.875244 65.840836 379.28586
91.864029 65.690529 379.29123
91.820511 67.252319 379.05331
91.816521 67.336365 379.18506
91.824646 67.78756 379.16266
91.81707 67.485886 379.17331
91.789009 67.718857 379.28928
91.772118 68.149269 378.98248
91.721489 68.212257 378.83905
91.72525 68.361893 378.82883
91.798965 68.234886 379.12097
91.812317 68.085503 379.13931
91.723259 68.512047 378.82672
91.786873 68.532959 379.1033
91.805069 68.683762 379.10175
91.818512 68.826859 379.08307
91.76844 67.418098 379.29584
91.81543 68.162277 379.2774
91.795815 68.018684 379.27451
91.822174 67.936287 379.15808
91.701401 67.647568 379.40402
91.675957 67.495399 379.41162
91.793884 67.868683 379.28329
91.705574 67.797417 379.40768
91.259186 66.714951 379.31146
91.516693 66.832802 379.53076
91.458412 66.677277 379.53702
91.552757 67.570503 379.5159
91.38839 66.370476 379.51694
91.438614 66.525818 379.5213
91.333176 66.446548 379.63455
91.36985 66.891487 379.63861
91.394943 66.748024 379.62344
91.430656 67.049278 379.64539
102.74405 84.468948 379.85083
102.75189 84.562492 379.966
102.88388 84.399582 380.01917
99.655548 90.874916 379.33203
99.573875 91.037865 379.28342
99.702774 90.963898 379.4519
99.645111 91.112778 379.43625
99.623116 91.483406 379.57242
99.529968 91.628036 379.54376
99.628174 91.568398 379.69659
99.61454 91.638802 379.83112
100.97482 87.512154 380.47021
100.94334 87.421852 380.42297
91.574417 71.105698 378.46661
91.642731 71.24086 378.48401
91.572464 71.170708 378.59967
91.525536 71.029289 378.59305
91.611649 71.322182 378.5994
91.401947 72.601768 378.39539
91.443726 72.756485 378.40561
91.410812 72.675316 378.52689
91.40477 72.530991 378.52347
91.636055 68.915848 378.65536
91.700539 69.000381 378.80188
91.679543 68.851791 378.80838
91.717216 69.065224 378.67346
91.702652 69.146851 378.81329
91.598442 69.372116 378.63327
91.646767 69.521202 378.64474
91.63868 69.450768 378.79105
91.647614 69.301872 378.78503
91.609428 69.825432 378.63919
91.624901 69.975555 378.63004
91.612434 69.902237 378.77261
91.617638 70.049057 378.77039
91.606728 69.981201 378.88788
91.523842 70.577522 378.60104
91.571976 70.650673 378.75305
91.466995 70.420677 378.56943
91.56324 70.502892 378.7493
91.570084 70.351715 378.76071
91.545547 71.259712 378.72464
91.534996 71.102158 378.73087
91.357704 71.388687 378.6915
91.422775 71.485497 378.80356
91.467697 72.227989 378.55432
91.500107 72.368599 378.56635
91.520454 72.301773 378.7081
91.443253 72.14901 378.66934
91.443954 72.462982 378.67313
91.487503 72.379883 378.82367
91.425758 72.750092 378.66611
91.404106 72.602615 378.66745
91.387337 72.53756 378.78494
91.737434 69.08374 378.93155
91.829262 68.931244 378.99622
91.689644 69.233971 378.92145
91.668961 69.378716 378.91794
91.58625 70.198448 378.75882
91.590668 70.130798 378.88089
91.589539 70.278389 378.87604
91.622086 70.578323 378.89474
91.610321 70.427628 378.88461
91.505569 71.337982 378.83249
91.487663 72.014275 378.70767
91.513405 72.083366 378.84665
91.542717 72.004097 378.96805
91.5186 72.228699 378.84055
91.37648 72.681923 378.78723
91.392189 72.906029 378.65402
91.311775 72.830818 378.76379
91.416283 72.987885 378.80002
91.322845 73.811813 378.63306
91.389534 73.885323 378.78412
91.330856 73.72879 378.74323
92.039276 69.017654 379.17181
91.831528 68.842583 379.09439
91.718338 69.453804 379.07861
91.57534 71.406403 378.99588
91.549904 71.556213 378.98715
91.528221 71.70652 378.97656
91.412766 71.628845 378.84125
91.386734 71.781258 378.82169
91.531868 71.85611 378.98325
91.395233 71.919983 378.7905
91.411194 72.907158 378.92828
91.381744 73.047287 378.93201
91.399437 73.434204 378.76755
91.375038 73.579048 378.77975
91.442451 73.508141 378.94043
91.423546 73.655106 378.92886
91.413605 73.806465 378.90863
91.413559 73.955986 378.92136
91.747368 69.530739 379.21475
91.709679 69.604546 379.06079
91.718658 69.752846 379.0802
91.668114 70.053566 379.06195
91.723709 70.133003 379.19803
91.739456 70.056175 379.33347
91.66571 70.354515 379.04938
91.663643 70.204384 379.05621
91.721535 70.282867 379.18683
91.666115 70.50415 379.03189
91.259064 73.096771 378.89621
91.191711 73.23336 378.89709
91.514977 72.985741 379.0737
91.526062 72.83297 379.09619
91.46312 73.583267 379.06287
91.448357 73.431702 379.04587
91.499603 73.517242 379.19757
91.450668 73.883888 379.05115
91.361542 74.098785 378.90472
91.435806 74.027885 379.06149
91.289467 74.247185 378.88162
91.35656 74.192085 379.01114
91.448952 74.110878 379.17987
91.742767 69.680916 379.21246
91.737335 69.609581 379.34293
91.730812 69.831306 379.20459
91.721138 69.98111 379.20728
91.732185 69.899055 379.33743
91.727043 69.758369 379.33688
91.70256 70.431793 379.18365
91.73027 70.360535 379.32425
91.691475 70.581093 379.18265
91.696022 70.508675 379.3154
91.607666 71.632637 379.13577
91.59935 71.782494 379.12592
91.615883 71.709557 379.27075
91.625214 71.56057 379.27597
91.622261 71.482498 379.14322
91.602226 71.932625 379.13312
91.612518 71.858986 379.26709
91.607315 72.008484 379.26608
91.548271 72.310677 379.24448
91.582726 72.152954 379.2565
91.566757 72.382362 379.11041
91.57415 72.233017 379.11734
91.585014 72.531662 379.10257
91.65239 72.605042 379.27039
91.590347 72.455696 379.25888
91.603737 72.912285 379.25696
91.462219 73.136879 379.05441
91.604782 73.04953 379.25333
91.535805 73.285225 379.1076
91.468056 73.205093 379.19968
91.611572 73.361763 379.25262
91.567093 73.282608 379.36395
91.463242 74.260414 379.20605
91.694901 69.687462 379.45877
91.682022 69.834229 379.45862
91.702583 70.442833 379.44778
91.678123 70.65834 379.30859
91.659981 70.589882 379.43567
91.653282 70.73584 379.4335
91.669464 70.808533 379.30405
91.656021 70.958305 379.29803
91.649429 70.860703 379.45547
91.628105 71.012901 379.45767
91.644501 71.259109 379.28549
91.62394 71.336525 379.41745
91.64463 71.111763 379.28809
91.58152 71.12146 379.52563
91.61364 71.187759 379.41748
91.641838 71.410065 379.28284
91.604523 71.488594 379.41183
91.582184 71.638458 379.40317
91.569679 71.935928 379.39023
91.559959 72.078354 379.38806
91.466202 72.241219 379.35522
91.516434 72.687675 379.36063
91.488983 72.471764 379.48471
91.52005 72.382996 379.3714
91.544983 72.830772 379.37137
91.558723 72.761658 379.23398
91.463539 72.764854 379.48267
91.474068 73.962944 379.18692
91.485886 74.04184 379.3175
91.611176 73.957169 379.50797
91.53756 74.192223 379.36005
91.364265 71.561325 379.46771
91.519867 72.912354 379.48926
91.573372 72.98037 379.36481
91.264458 73.069153 379.42603
91.556908 73.362022 379.49567
91.539825 73.226318 379.492
91.575226 73.43412 379.36755
91.494225 73.591583 379.34238
91.514992 73.500725 379.48135
91.508308 73.726265 379.33939
91.535316 73.903816 379.59827
91.10173 73.677078 379.39496
91.333992 73.73877 379.58224
91.580482 73.884682 379.3761
91.632637 73.820572 379.5105
91.467262 72.988106 379.61188
91.399513 72.826202 379.61224
91.440651 73.285324 379.60785
91.406845 73.143311 379.59616
91.319153 72.919434 379.71036
91.088409 72.793594 379.64175
91.369453 73.06855 379.72589
91.391914 73.217911 379.72461
91.465027 73.384392 379.72903
91.257957 73.008957 379.81494
91.041634 72.834625 379.78854
91.19487 74.269974 379.67032
91.11795 74.350136 379.7533
101.75844 87.677795 382.48407
101.71787 87.901703 382.33389
101.71998 87.826042 382.47131
101.6227 88.128426 382.4397
101.67403 87.978859 382.4559
101.60171 88.203323 382.29645
101.56858 88.279755 382.42233
101.54725 88.356537 382.25244
101.49294 88.503357 382.26367
101.51306 88.428841 382.40558
101.45001 88.583252 382.38513
101.83172 87.375443 382.50897
101.80853 87.302261 382.63852
101.82297 87.081993 382.78171
101.77184 87.452248 382.62601
101.73544 87.6045 382.61426
101.45608 88.507294 382.52371
101.38038 88.732185 382.36429
101.32516 88.808167 382.48352
101.39169 88.660751 382.50348
101.254 88.95929 382.4617
101.78106 87.230377 382.76724
101.74448 87.379051 382.7543
101.70822 87.531204 382.74268
101.66144 87.904266 382.58905
101.61824 88.054329 382.5748
101.69939 87.754524 382.60193
101.55009 88.130402 382.68924
101.56947 88.203629 382.55908
101.50034 88.280304 382.67337
101.18881 89.0364 382.57788
101.72229 87.307571 382.88443
101.47619 88.208984 382.80301
101.44519 88.432404 382.65656
101.42462 88.35984 382.7868
101.38606 88.584587 382.63843
101.31271 88.660263 382.7518
101.32581 88.733292 382.61957
101.25973 88.88485 382.59943
101.18526 88.960304 382.71255
101.17632 88.88784 382.84586
101.11334 89.113609 382.69101
100.95836 89.267738 382.91595
101.03348 89.192383 382.80307
101.78666 86.93399 383.04254
101.82352 86.782768 383.0549
101.10635 89.037216 382.82455
101.10439 88.96479 382.95999
101.03043 89.117722 382.93762
101.04259 89.046173 383.07602
100.99877 89.121361 383.19797
100.9681 89.196411 383.05377
100.92301 89.271843 383.17529
100.67599 89.743454 384.44556
100.70799 89.521652 384.59259
73.549629 84.001472 378.70761
73.529953 83.94014 378.83167
73.492111 84.015717 378.9541
73.463951 83.944405 379.08173
73.510201 83.833801 379.02823
73.480453 84.166702 378.94785
73.445114 84.091423 379.0723
73.413994 84.015587 379.19827
73.408424 84.254997 379.06696
73.392761 83.866089 379.35721
73.369331 84.167664 379.18015
73.287613 84.107605 379.306
73.325768 83.996078 379.38037
73.287506 84.247368 379.29581
73.258194 84.179329 379.42657
73.249939 84.403587 379.28793
73.21666 84.326439 379.41428
72.937859 84.643692 379.60037
73.075554 84.519592 379.48251
72.907875 84.575493 379.72919
73.136337 84.463982 379.66
73.149719 84.403206 379.86099
72.999565 84.931229 379.62219
75.829582 84.162689 380.6463
75.876198 84.232315 380.78741
75.799026 84.078339 380.76657
75.859039 84.159698 380.91934
75.775703 84.014793 380.90384
75.924355 84.306602 380.93085
75.815857 84.091461 381.04758
75.685936 83.948036 381.01544
75.897629 84.237701 381.06506
75.999138 84.457184 381.21814
75.932129 84.322227 381.21036
75.716278 84.03492 381.15314
75.964638 84.40744 381.34888
76.044907 84.540878 381.36484
76.108818 84.682228 381.38174
76.05938 84.635017 381.50031
76.138344 84.753998 381.52493
75.937828 84.68119 381.6113
76.199516 84.834274 381.66458
73.055359 86.525803 380.81216
76.50634 85.387901 382.16757
76.576645 85.526436 382.14105
76.545525 85.458046 382.29788
76.490662 85.289909 382.27454
76.58799 85.668022 382.19034
76.582054 85.604561 382.30453
75.610535 89.127914 382.8533
75.363251 88.92308 382.72089
75.372765 89.297684 382.58963
75.561279 89.222397 382.77261
75.463791 89.358192 382.64136
75.231705 89.146011 382.54422
75.736336 88.103241 383.32535
75.967422 88.385414 383.49402
76.010933 88.776756 383.44193
76.044975 88.924568 383.43909
76.468437 89.22496 383.81677
81.154739 93.780746 386.16599
81.157097 93.852158 386.29745
79.045456 91.637039 386.026
79.037666 91.429588 386.13751
79.088631 91.403183 386.23322
79.137299 91.544235 386.21738
79.267639 91.636337 386.40912
79.207932 91.563148 386.51733
79.32309 91.783379 386.42291
79.290504 91.704369 386.53854
79.391129 91.926193 386.42896
79.381851 91.848686 386.5596
79.181221 91.618263 386.64682
79.142586 91.486961 386.63437
79.327156 91.771133 386.67908
79.491348 91.925636 386.72052
74.012718 83.738525 378.67728
73.761215 83.755646 378.77969
73.857567 83.725243 378.89066
73.727379 83.675316 379.07932
73.963585 83.678162 378.98621
73.542816 83.733101 379.16159
73.617294 83.658989 379.26831
73.442604 83.855461 379.21002
73.479599 83.743767 379.32187
74.234291 83.650383 378.85547
74.114471 83.648224 379.05893
73.821426 83.629234 379.18527
73.973785 83.617538 379.26163
73.892891 83.60363 379.43506
74.266296 83.60981 379.1286
73.434608 83.772385 379.48251
73.353401 83.900597 379.5072
73.297707 84.042816 379.52789
73.137474 84.404221 379.46118
73.14341 84.460487 379.58997
73.208351 84.332565 379.56082
74.125114 83.602882 379.33795
73.336983 83.94873 379.6546
73.245773 84.236137 379.69592
73.28624 84.089264 379.67935
73.321503 83.989891 379.81284
73.19162 84.37648 379.71204
74.056068 83.60051 379.50616
74.229599 83.596069 379.57288
73.226868 84.278587 379.84927
73.128494 84.449188 380.02139
74.292305 83.558258 379.4072
73.849716 83.618309 379.59631
73.206924 84.321762 380.00128
74.190063 83.623947 379.73056
74.404655 83.587448 379.63962
74.028275 83.619026 379.66132
73.19416 84.373329 380.14053
74.367355 83.626587 379.7944
74.5998 83.584747 379.69974
73.197601 84.430573 380.27948
73.261658 84.299416 380.25342
74.573387 83.627403 379.85132
74.363327 83.672829 379.93854
73.273811 84.364883 380.3891
73.215218 84.502434 380.41003
74.540977 83.674988 380.00214
74.365936 83.726997 380.07922
73.298477 84.438057 380.51727
73.252129 84.590797 380.535
74.550621 83.724037 380.14322
74.734909 83.670761 380.06503
73.334099 84.519562 380.64096
73.397934 84.386406 380.61566
73.441071 84.477371 380.7258
73.550682 84.361336 380.70084
73.60733 84.465034 380.80353
73.536888 84.586563 380.85004
73.682625 84.572044 380.90872
73.605644 84.689682 380.95837
73.750069 84.676521 381.01569
75.221588 84.510963 381.53079
75.006386 84.484146 381.4873
75.336769 84.700638 381.76022
75.482033 84.556412 381.56403
75.387962 84.801483 381.86874
75.545738 84.651489 381.67953
75.611588 84.759193 381.78497
74.963898 84.987404 381.91162
74.882233 85.107468 381.95068
75.023186 85.083252 382.02521
75.122902 84.973953 381.98343
75.059692 84.873314 381.87411
75.469063 84.91172 381.97253
75.67971 84.872414 381.88541
75.96154 84.863022 381.77997
75.083763 85.175591 382.14444
75.188873 85.07444 382.09396
76.053383 84.986572 381.87433
75.794548 84.998734 381.98001
75.25016 85.172165 382.2063
75.402733 85.091095 382.14835
75.324829 84.983566 382.04285
76.131432 85.107689 381.9689
75.964378 85.241409 382.1698
76.129074 85.390541 382.25134
75.314529 85.26371 382.32483
75.470093 85.196671 382.25391
75.659019 85.146339 382.17285
75.536507 85.300507 382.36136
75.651009 85.415665 382.46793
76.199539 85.223083 382.06589
75.733162 85.258789 382.27393
75.798782 85.373222 382.37277
76.372215 85.371513 382.16278
76.20932 85.502434 382.35318
76.304527 85.605034 382.46228
76.491615 85.595184 382.34818
76.610435 85.299477 382.32819
76.535118 85.421722 382.35516
76.647217 85.376411 382.45419
76.535843 85.481079 382.4845
76.58551 85.701111 382.48044
76.71759 85.493942 382.5697
76.722549 85.677887 382.56039
76.716354 85.835442 382.54059
76.798836 85.585442 382.65698
76.836258 85.789162 382.6239
89.35186 92.672173 378.06662
89.420052 92.774658 378.17426
89.313995 92.580208 378.21277
89.378029 92.678452 378.32187
89.361145 92.461868 378.34039
91.205994 64.741974 378.55276
91.143524 64.859169 378.61832
91.374603 64.894936 378.64459
91.397034 64.753616 378.61456
91.370834 65.069992 378.64859
91.377617 65.789307 378.62552
91.522537 65.756592 378.68219
91.1763 65.578369 378.56491
90.919563 65.791618 378.64594
91.196693 66.005402 378.66162
91.328171 65.914375 378.64505
91.241219 66.337395 378.51981
91.279526 66.413216 378.62247
91.352066 66.298492 378.6207
90.898026 66.655304 378.63086
91.038361 66.806465 378.70892
91.260521 66.75367 378.64435
91.001869 71.276001 378.47678
91.094604 71.410286 378.58942
91.087509 71.212799 378.57828
90.768532 74.306488 378.50375
90.791992 74.515251 378.48032
90.808861 74.391991 378.62521
90.792252 74.543571 378.63174
91.632927 65.295334 378.63608
91.722313 65.184471 378.64087
91.309753 65.567245 378.62698
91.631157 65.642296 378.66251
91.509354 65.926857 378.69958
91.467369 66.262093 378.71429
91.423317 66.389984 378.70026
91.365669 66.657341 378.60693
91.469322 66.609047 378.69696
91.421074 66.748543 378.69293
