# .PCD v0.7 - Point Cloud Data file format
VERSION 0.7
FIELDS x y z
SIZE 4 4 4
TYPE F F F
COUNT 1 1 1
WIDTH 1612
HEIGHT 1
VIEWPOINT 0 0 0 1 0 0 0
POINTS 1612
DATA ascii
78.308235 93.081261 382.22424
78.235077 92.876678 382.64127
75.408417 91.226097 381.4613
77.728691 92.555473 382.68475
89.043602 92.392921 379.18149
88.410988 92.777985 379.56241
89.526894 92.223679 379.61374
93.976936 94.174057 380.95334
93.34729 93.886406 380.84424
88.694931 92.163216 380.55304
89.667984 91.959816 380.63385
95.131973 94.106293 381.25974
94.021751 94.098167 381.48941
93.026718 93.895233 381.3284
92.528061 93.667488 381.69312
95.685135 93.84565 381.67105
89.51992 91.578491 381.34982
88.97625 91.022995 381.27399
95.08596 93.973831 381.63458
93.182594 93.763222 382.26465
91.264336 92.955238 382.16721
95.173622 93.717628 382.65967
93.61795 93.728386 382.93677
95.79335 93.579788 382.98917
95.506836 93.607964 383.88022
93.234398 93.226967 384.06958
94.6353 93.625351 384.24878
94.357437 93.580292 384.53439
95.792381 93.531052 384.98792
93.773247 93.216171 384.89908
93.826149 93.012428 385.18079
95.4207 93.573952 385.46423
94.282196 93.121872 385.48441
95.503319 93.317673 385.93356
94.890465 94.356537 380.20538
95.882721 94.182632 380.37015
97.171295 93.602608 380.71719
97.476395 93.547318 380.33765
96.970192 93.768417 380.47165
96.609016 93.723511 381.10843
95.861618 94.031288 381.0228
98.327492 92.762489 381.20529
98.418755 92.466026 382.50348
98.397949 92.374382 383.21991
95.808617 93.533073 383.98318
98.590172 92.374596 384.11102
98.781578 92.205841 384.50671
98.090721 92.759048 386.06076
97.957985 92.792206 386.37784
97.955406 92.557114 386.54947
96.512817 93.907127 379.9603
98.970894 92.439301 380.23764
99.502403 91.770683 380.58972
99.193474 92.183235 380.44485
99.895836 91.180519 380.93448
99.699936 91.460564 380.76242
100.33971 90.381889 380.63275
100.34446 90.471611 381.4155
100.56189 89.911484 380.86642
100.69068 89.713402 380.96368
100.73673 89.721481 381.24783
101.2838 88.728493 381.73727
100.81655 89.781166 382.17868
101.39551 88.493767 381.7579
101.20796 89.057411 382.03656
101.45139 88.557159 382.09305
98.797157 92.049294 383.2543
98.844177 92.101364 383.57718
100.43353 90.287766 384.27942
100.66633 89.674301 384.59143
100.44715 89.654556 385.28903
99.69471 91.232155 386.38428
99.005356 91.879433 386.5925
100.72166 87.833786 385.01569
100.71205 87.359734 384.94138
99.98555 90.48407 386.35672
100.44281 88.547691 385.61966
100.36857 88.904999 385.79926
99.813293 90.246582 386.65292
90.727386 77.997681 380.07523
90.452873 78.118683 380.0954
90.827606 76.310188 379.97241
90.976799 75.05687 379.8374
90.63105 75.190613 379.96219
91.084999 71.128532 379.66595
101.50949 88.331879 381.96283
102.67337 85.196724 380.61789
102.85198 84.860062 380.77573
101.98925 86.954117 381.95535
103.05975 84.055359 381.14706
102.63714 85.250679 381.81177
102.59735 84.992935 382.11716
102.49882 85.421844 382.31299
103.10958 82.959427 381.34799
101.97013 86.272369 382.93521
102.10297 85.358086 382.94968
102.41547 83.917168 382.43378
101.50056 86.598198 383.63934
102.14272 84.310104 382.87399
102.02067 84.703568 383.04807
101.35454 86.596863 383.88306
101.93203 84.194794 383.07593
101.14589 86.183212 384.07309
101.78261 83.175423 383.00275
101.10027 85.138977 383.83817
91.764664 65.92498 379.39648
91.344574 66.083504 379.56839
83.518448 94.657265 384.6944
83.065056 94.500854 384.44315
81.619827 94.171684 384.21036
81.312927 94.129272 383.89352
80.876465 93.950249 384.07919
81.030602 94.057961 383.38968
78.868843 93.278046 382.60373
78.525978 92.934456 382.9621
77.29554 92.501526 382.06076
76.356789 91.817726 382.07758
74.80217 91.014198 380.74469
99.086929 92.283539 379.75345
96.598503 93.946442 380.27127
96.116432 94.056831 380.68066
89.859161 91.491806 380.87149
89.651108 90.571335 381.70718
89.64653 92.035805 379.93652
89.514526 92.286377 379.07846
89.058327 90.136986 381.63846
88.958527 90.477226 381.59915
89.474747 92.983109 378.479
88.749634 90.707664 381.65323
89.060287 93.245178 378.70111
88.662079 91.452347 381.54291
88.105553 92.2285 382.2066
87.789276 93.132507 382.04614
87.451714 93.490044 381.86792
87.051941 93.543442 382.9487
86.912346 93.790192 383.20618
86.508362 94.152634 383.26538
86.376602 94.215508 383.00635
85.712868 94.417198 382.91962
84.141075 94.997162 380.80115
83.857773 94.833801 381.20779
83.749809 94.624153 383.79846
83.595093 94.595825 384.08786
83.452599 94.609978 382.02042
82.984657 94.486923 383.38242
82.281685 94.331169 383.63696
81.908028 94.699127 380.69446
81.57225 94.224922 383.39212
80.303154 94.190414 380.78555
80.157516 94.248543 380.17288
79.737785 94.052254 380.80811
79.841064 94.13398 379.86865
79.730179 94.129112 380.31323
79.585464 93.541756 382.86377
79.405655 93.645859 382.24329
79.306129 93.947533 380.77472
78.946259 93.832642 379.89832
78.817436 93.813408 380.14157
78.55011 93.292076 381.9798
78.138161 93.594566 380.07907
77.803162 93.3731 380.73477
77.642174 93.338203 380.59686
77.211441 93.052483 380.62857
75.860039 92.059296 380.67163
75.720734 91.987602 380.5166
89.272522 93.261154 378.04178
89.474724 92.303734 378.49445
89.425377 92.143677 379.2999
89.820312 91.634415 380.64404
88.743172 92.753258 380.36075
88.43631 92.115532 381.42108
87.440056 93.344498 381.15256
74.30368 83.704468 378.10471
74.022682 83.745575 378.22183
73.828888 83.568016 378.48019
74.237762 83.405533 378.38843
74.461266 83.395828 378.80121
75.205505 83.392204 379.12393
74.828079 83.342911 379.23193
74.55867 83.351555 379.34009
84.35997 94.90538 380.10245
85.331703 94.557137 380.31631
86.349884 94.088646 380.80063
85.504272 94.640579 380.85284
87.163536 93.755898 381.67572
86.115616 94.397255 381.32477
86.168663 94.260956 383.69144
82.543709 94.477554 384.78616
81.970337 94.364861 385.17303
82.817421 94.65448 385.32294
82.816139 94.562012 385.71326
82.619919 94.483337 385.83838
84.005836 94.626274 383.62827
85.974915 94.375473 383.56851
83.016998 94.948334 379.85672
77.674973 92.412651 382.93082
78.144218 92.484787 383.32559
78.74575 92.911102 383.39023
78.595253 92.768356 383.5162
81.366379 94.099152 384.34659
80.012688 93.529114 384.39938
79.235039 93.097641 384.07336
81.574707 94.183907 384.62317
79.322289 93.051132 384.46005
79.79821 93.247452 384.8822
81.581551 94.188911 384.88443
80.875114 93.893669 384.47357
79.205872 92.914261 384.57138
79.316673 92.758957 385.05151
81.567764 94.289383 385.55423
80.108177 93.3535 385.55402
80.375641 94.029488 381.61707
73.842018 84.262169 377.91644
73.586449 84.13205 378.20886
77.408989 93.158813 379.89279
76.676804 92.607185 379.91708
76.159828 92.346603 380.06876
75.802475 92.056526 380.19739
74.98259 91.182655 380.26855
74.759178 90.958954 380.13388
74.225838 90.514809 380.23975
74.6306 90.911621 380.40088
74.446983 90.809273 380.55685
74.139832 90.529861 380.54282
73.98587 90.359871 380.52951
74.420372 90.649658 380.9274
73.903702 90.028603 381.00986
74.767998 90.838081 381.18063
79.771942 93.887978 381.28952
74.103577 90.038109 381.24719
79.475937 93.810547 381.32269
75.150253 90.814339 381.65118
75.095062 90.354851 382.0885
75.191635 90.652458 381.8768
74.333183 89.80043 381.7251
74.279327 89.415451 381.94302
80.353035 94.013763 382.02914
76.028015 91.425644 382.17184
79.874588 93.574028 383.22668
78.146011 92.174316 384.14975
77.597305 91.399689 384.29886
79.021614 92.407211 385.26825
79.427513 92.735176 385.40942
78.74865 91.935349 385.47824
78.72245 91.752022 385.69293
79.20047 92.349564 385.89981
80.098862 93.241051 386.35587
102.83983 83.784554 381.29022
102.83095 84.135429 380.9642
102.60165 84.194649 381.49637
102.57244 84.71476 381.45349
102.05301 85.723343 382.30899
102.55164 84.9655 381.39084
102.48293 85.352371 381.48727
102.17171 86.013359 381.50217
102.16716 84.900688 380.08688
101.54491 85.41198 380.27979
100.92634 86.046822 380.34888
100.37401 87.02504 380.02023
89.62104 87.688507 381.39868
89.780922 89.069351 381.76749
89.210655 88.024796 381.17062
89.1101 89.399422 381.55042
88.90358 89.918198 381.63248
79.236557 90.976669 386.37961
77.594772 88.861008 384.94559
77.356842 88.963043 384.82162
77.69545 89.933372 385.05588
77.524567 89.775307 384.9281
77.148354 89.194504 384.69196
77.991142 91.367714 384.86185
76.843521 89.540672 384.44061
77.160324 90.835449 384.1608
76.32959 89.695122 383.85187
76.48008 89.969162 383.87894
76.110931 89.886177 383.41351
75.855209 90.10421 383.09973
75.874779 89.760384 383.24561
100.80328 82.171364 382.99142
89.803368 84.897781 380.77136
89.908791 86.147842 381.12778
89.610733 86.251808 381.06003
89.50975 85.247696 380.23309
89.466751 86.775871 381.08548
77.205345 87.160912 384.04166
77.247566 88.132133 384.52844
76.864113 87.27272 383.99411
76.908463 87.68782 384.18399
76.468925 88.201874 384.11194
76.126999 87.556038 383.8024
76.569756 88.577835 384.23215
75.683937 88.082878 383.53528
76.230774 89.195778 383.90988
74.974724 88.501602 382.87305
75.017929 89.768555 382.47214
74.039978 89.006233 381.89667
73.797791 88.534058 381.82657
73.689896 89.077744 381.48907
73.619102 89.558464 381.09619
73.387344 89.354477 380.65646
90.336876 82.445381 380.39941
90.486778 83.674858 380.78091
90.299049 83.238579 380.50043
89.735672 84.509682 380.57938
89.615456 84.858055 380.13333
76.507202 87.173256 383.83456
76.181 86.869759 383.55231
76.052536 85.620003 382.77103
75.792648 87.233452 383.51761
75.335175 85.965851 382.80508
74.934509 85.919563 382.54605
74.901337 87.383621 382.84702
73.848587 87.517677 382.11288
73.436707 87.713242 381.64285
73.102333 86.57914 381.26865
72.90464 86.705048 380.95053
72.999641 87.374847 381.07242
73.135231 87.407188 381.34421
72.87912 87.342163 380.79041
73.383209 88.973701 381.13361
72.79496 87.309647 380.47842
72.892403 87.827522 380.32318
72.949997 88.10006 380.44193
90.604462 78.25444 379.78247
90.495117 78.631454 379.73672
90.746681 78.706223 379.89752
90.457703 78.359886 379.60486
90.512123 79.163239 379.84476
90.712242 79.71048 379.99991
90.894859 80.790642 380.28613
90.558952 80.105522 379.99014
90.433464 81.141693 380.11157
90.342545 81.651367 380.13623
75.48867 84.371567 381.70801
74.9804 84.466545 381.60574
74.907486 85.411392 382.21356
74.766357 85.271873 382.04523
74.641945 84.156151 381.1412
74.419518 84.951149 381.59351
74.867432 83.741478 380.73813
74.322243 84.655731 381.32977
74.283356 85.207085 381.66632
74.557152 83.570206 380.33105
74.03566 84.633911 381.16653
74.166138 83.804413 380.41202
73.603043 84.855682 381.09357
73.303566 85.628113 381.22491
73.424034 85.778305 381.39932
73.149521 84.079445 379.91956
73.0746 85.047531 380.71262
72.808998 85.401093 380.39355
72.971443 84.434761 379.53293
72.744392 86.450569 380.49667
72.735001 86.041458 380.28226
92.498329 69.111374 379.67026
91.899788 70.769325 379.83282
91.864822 71.556313 379.96317
91.917465 71.823914 379.89999
91.675354 71.925476 379.78159
91.806335 72.195854 379.81949
91.82328 72.4589 379.79294
91.247375 71.614479 379.39127
91.690804 72.971016 379.85236
91.237328 72.264069 379.40848
91.695496 73.875092 379.81662
91.076431 72.505157 379.30936
91.038109 73.295135 379.44778
91.13652 73.56778 379.52902
91.188393 73.962204 379.55209
91.015053 72.337631 378.72049
91.459755 74.782753 379.82401
91.391792 75.323929 379.97769
90.804237 74.247948 379.39899
91.339012 75.827118 379.97012
90.866798 72.840553 378.38498
90.630447 73.332314 378.51041
90.952698 73.763077 378.48953
90.786499 75.10276 379.43307
90.947662 76.174416 379.76596
90.668129 75.866264 379.2291
90.847404 77.087418 379.83386
90.693672 76.094383 378.81232
90.842575 76.706802 378.98633
90.339836 77.632408 378.92886
91.434586 76.572456 380.16394
90.880569 77.731705 379.88922
90.738396 79.154823 379.94711
99.938332 89.926056 386.54346
99.631676 91.105507 386.61823
100.41096 88.603104 385.28
100.24409 89.497864 385.55133
100.93161 88.000076 384.22681
99.023804 91.867241 386.57275
99.264503 92.101677 386.59427
101.1033 86.98468 383.97958
101.46317 87.068253 383.13425
98.798447 91.992836 385.76239
98.319168 92.352837 386.22522
101.84334 86.452965 382.388
98.380211 92.31665 385.99417
97.99205 92.553825 385.84436
101.81735 86.714401 381.75186
101.40057 87.830391 382.28287
101.46212 87.794304 382.04193
102.33063 85.523743 380.79605
102.0173 85.297195 380.33231
100.67322 88.246979 380.5325
99.821152 90.681839 381.78671
100.6209 87.151978 380.25473
100.52543 87.683113 380.23615
92.516762 92.757408 383.35608
91.701813 92.593224 382.83093
90.83429 91.522743 382.2406
90.363899 91.160995 382.06161
90.294289 90.280769 381.9809
90.079582 91.014587 381.92352
90.082588 90.119789 381.82321
90.044563 84.222321 380.6925
89.750732 86.850037 381.28827
89.454506 90.276299 381.65723
88.753235 90.261276 381.57254
88.782471 91.212082 381.34198
88.758003 91.467934 381.2348
89.112564 91.958359 381.02145
78.224915 90.944977 385.39334
76.115021 88.149681 383.89355
75.373085 87.845078 383.28271
74.612236 86.002617 382.30402
74.548965 85.797997 382.15649
74.39666 86.018097 382.1521
75.144867 83.874779 381.039
73.608849 86.795357 381.89865
73.34082 87.056915 381.64764
73.938736 83.806557 380.33591
100.87438 87.244873 384.39462
101.08636 87.250214 384.03296
101.52545 86.334152 383.20657
97.273262 92.921364 386.15778
97.085793 93.007507 386.19427
96.631264 93.204376 386.12695
96.176132 93.267357 385.98328
92.990013 92.751656 383.86401
92.937515 93.030128 384.03464
92.735664 93.138443 383.71048
92.202606 92.884659 383.29575
91.435043 92.731995 382.77011
90.872276 91.957573 382.32007
90.547676 92.01535 381.66086
79.725174 92.744057 386.45908
78.957397 91.686882 386.19562
92.306267 65.402122 379.29068
92.359512 65.97998 379.01614
92.484367 65.730034 378.82764
91.286949 65.696617 379.47513
91.072075 65.852013 379.35153
102.65254 82.488129 381.87802
101.78801 80.879677 381.8584
101.66768 80.950401 382.0325
101.41505 83.560272 383.28323
101.45184 81.693069 382.6813
101.04581 81.490784 382.59982
100.98652 85.365776 383.95343
100.92458 86.782494 384.47806
100.53812 86.713814 384.88412
100.50455 83.529877 383.6879
100.1461 84.205727 383.85223
100.02271 84.431702 383.8923
99.927193 87.39653 385.72809
100.14622 88.985603 386.1575
99.761467 86.727097 385.39975
99.84256 88.372826 386.09036
97.841461 93.031967 386.37973
92.222488 68.407089 379.20251
91.982811 66.387383 379.13116
92.098633 68.932716 379.24432
92.177795 70.574577 379.01263
91.857483 66.167137 379.28156
91.861305 66.767677 379.19543
91.95385 68.255371 379.23343
91.97403 68.709229 379.24789
91.589447 66.17514 379.46906
91.99646 69.913101 379.20517
91.649101 67.223793 379.39938
91.697479 68.425987 379.42233
91.802223 71.131393 379.21201
91.705666 67.955917 379.39844
91.415977 68.129257 379.6507
91.642403 69.542839 379.50085
91.340843 66.649902 379.29929
91.708466 74.58783 379.23306
91.74054 74.87426 379.26447
91.50444 69.92746 379.57626
91.605965 75.260025 379.39175
91.78952 75.936584 379.30469
91.397797 76.175507 379.46695
91.437813 76.915588 379.51337
90.817871 66.646111 379.27322
90.941322 68.903122 379.32819
90.960617 69.211411 379.29364
91.459251 77.810532 379.53253
91.002563 70.40097 379.65115
91.023056 70.850243 379.6499
91.322563 77.296371 379.6087
91.344681 78.044357 379.58008
90.79496 71.315659 379.30011
91.232872 78.444504 379.52798
91.12928 78.964363 379.69272
91.152237 79.258148 379.74396
91.194695 80.317032 379.66162
91.841255 93.430618 382.09079
90.703384 72.455292 379.14343
90.72052 72.899811 379.2327
91.191689 79.997841 379.74643
90.942368 79.870888 379.7652
90.939743 80.165237 379.74353
91.671135 92.444496 382.51352
90.542595 74.564476 379.29703
90.878716 81.60009 379.74646
91.281334 92.37236 382.51962
90.644089 82.360931 379.98145
90.665276 82.648499 380.09921
90.566711 83.175354 380.16251
90.602539 84.239517 380.23181
90.95771 91.219948 381.66364
90.049126 78.119194 379.5271
90.111099 79.164497 379.65735
90.45076 83.995232 380.27579
90.355919 84.537483 380.37173
89.984612 79.533691 379.66516
90.150665 80.04425 379.79504
90.27169 85.506378 380.65637
90.567291 90.719452 382.03033
89.918518 80.663635 379.73895
90.143845 84.682709 380.84323
90.157158 85.88575 380.72406
90.519829 92.741776 381.83813
89.821899 81.481003 379.84668
90.069145 86.106331 380.84448
90.072678 86.564445 380.90488
89.717049 82.016861 379.9093
89.734138 82.463951 379.9834
90.019623 88.13559 381.14182
90.062599 88.572395 381.19592
90.224777 89.243568 381.22305
90.053482 89.03875 381.28564
90.231842 89.539612 381.36142
89.910248 88.20282 381.42175
89.533218 83.675339 380.23035
89.842484 89.769722 381.79355
89.399673 83.309608 380.15906
89.696915 89.554962 381.6293
89.299362 84.128883 380.32419
89.158539 86.527023 380.89041
88.953423 87.582298 381.03247
88.853889 88.263786 381.03674
88.877136 88.852356 381.28021
88.522156 89.69693 381.28391
88.551689 90.140205 381.48746
88.533295 92.318604 381.69562
87.64695 92.583466 382.06839
87.657738 92.868057 382.37595
87.255241 92.539551 381.77197
86.775703 93.424561 382.67883
85.402367 94.106636 384.37582
85.143082 94.113998 384.43829
85.015289 94.360786 384.69128
85.228096 94.404427 384.78918
84.764091 94.362823 384.7778
83.870033 94.457512 385.25415
83.614677 94.467773 385.37515
83.454262 94.120499 384.89478
83.222145 94.405334 385.56161
82.941216 94.124237 385.28824
82.821098 94.191055 385.52939
82.675644 93.989792 385.15192
82.415436 94.001793 385.40164
82.560188 94.21019 385.7262
82.144913 93.874214 385.36163
80.018593 92.590324 386.45602
79.610977 92.231247 386.56949
79.606277 91.927536 386.48883
79.320007 91.338692 386.36182
78.753288 90.779663 386.11893
78.307671 89.68647 385.62411
77.99884 88.664093 385.10764
77.671944 87.502968 384.35638
76.982307 86.71991 383.61304
76.557617 85.917252 382.99762
76.532539 85.634232 382.76129
75.527046 83.998268 381.22812
79.455177 92.413567 385.76401
79.526741 92.342064 386.19571
79.688148 92.514977 386.26828
100.47293 88.484093 380.02118
100.64905 88.936371 380.31076
100.30762 90.153801 380.15527
100.98822 87.944832 380.60889
101.12482 87.480171 380.62622
101.22214 88.092766 380.9375
101.40318 87.862068 381.13965
101.10764 88.398933 380.88815
100.79161 89.319092 380.74207
100.52811 89.922905 380.64789
101.84888 87.021347 381.44522
101.9422 86.93045 381.61765
101.34034 88.246803 381.23413
101.80132 87.004234 382.91788
101.60123 87.683952 382.97028
101.62316 87.021378 383.41788
101.2952 86.83474 384.00763
101.16264 87.000519 384.2312
100.7213 89.66777 384.32388
100.83865 89.279366 384.29086
100.92173 88.232292 384.64154
100.65314 88.729507 385.12817
100.51559 87.828552 385.35532
100.07163 89.469574 386.37048
73.266731 87.368202 381.14404
73.173973 87.626999 380.95633
77.738373 91.439323 383.86353
76.817963 89.949692 383.91925
78.381104 91.939629 384.16602
78.210945 91.795715 384.12186
78.50988 92.004997 384.33133
77.449036 89.898575 384.53656
77.601364 89.670197 384.73093
77.555519 90.343124 384.54214
77.995346 91.07267 384.63934
78.877472 92.074173 384.84277
77.802017 90.453537 384.76077
77.798363 89.588615 384.92667
79.157295 92.18956 385.11487
77.977585 89.659279 385.09882
78.512527 89.718941 385.66534
78.507469 90.320038 385.64035
78.705078 90.240334 385.85336
78.838165 90.1604 386.00061
78.860161 91.211563 385.96924
79.119568 91.786385 386.0444
102.47937 85.686584 380.6777
73.392448 87.261719 381.34189
102.30791 80.715385 380.02237
103.24798 83.53891 380.15912
103.15044 83.846359 380.08078
102.82516 84.840256 380.44321
103.02173 81.764946 381.03873
72.864479 85.449219 379.92206
72.910606 86.048019 379.85007
72.902618 86.372429 380.07358
72.941414 86.96376 379.99594
72.88575 87.002388 380.24866
72.946007 87.414169 380.35907
73.041908 86.12854 380.69641
73.315987 86.236366 381.15759
73.445068 86.557434 381.42618
102.53941 80.740036 380.53143
102.78722 81.109726 380.6344
102.16335 80.417816 380.65036
102.9265 84.293793 380.00244
102.39507 80.656128 380.79092
99.634682 91.186386 379.44421
99.3965 91.91111 379.75455
73.055115 85.086151 379.46738
76.348778 85.19368 381.99167
73.299591 88.17028 380.97397
78.836754 92.186607 384.60388
79.195625 92.401428 384.7746
79.567307 92.637283 384.96274
79.935005 92.895546 384.98877
79.391861 92.495201 384.94647
79.695068 92.719368 385.10617
79.775635 92.738106 385.54559
79.696945 92.64901 385.82086
80.687241 93.521431 385.73007
80.791443 93.545853 386.01929
80.29805 93.203087 385.84302
79.906662 92.835732 386.10416
80.360954 93.196121 386.26935
91.701004 66.531845 378.66736
91.85437 65.591652 378.87732
91.516693 66.832802 379.53076
91.438614 66.525818 379.5213
100.94334 87.421852 380.42297
91.572464 71.170708 378.59967
91.401947 72.601768 378.39539
91.389534 73.885323 378.78412
91.531868 71.85611 378.98325
91.442451 73.508141 378.94043
91.727043 69.758369 379.33688
91.52005 72.382996 379.3714
91.580482 73.884682 379.3761
91.319153 72.919434 379.71036
101.54725 88.356537 382.25244
101.77184 87.452248 382.62601
73.325768 83.996078 379.38037
73.287506 84.247368 379.29581
75.685936 83.948036 381.01544
76.58799 85.668022 382.19034
75.967422 88.385414 383.49402
76.010933 88.776756 383.44193
81.154739 93.780746 386.16599
74.367355 83.626587 379.7944
74.5998 83.584747 379.69974
74.540977 83.674988 380.00214
75.545738 84.651489 381.67953
75.469063 84.91172 381.97253
75.96154 84.863022 381.77997
76.131432 85.107689 381.9689
75.733162 85.258789 382.27393
76.535843 85.481079 382.4845
76.58551 85.701111 382.48044
89.361145 92.461868 378.34039
91.205994 64.741974 378.55276
90.792252 74.543571 378.63174
91.041885 71.595032 378.72879
90.951614 73.132858 378.72794
91.326347 70.102501 378.81503
91.202744 72.822334 378.78986
91.089127 75.156357 379.04471
90.672859 75.463837 378.91974
90.556938 77.548317 379.07211
90.579834 77.716103 378.91214
90.516434 78.305443 379.20673
90.788368 78.605743 379.384
90.451874 79.329178 379.21848
90.386803 80.400948 379.36273
90.352959 80.952423 379.49313
90.17453 81.532944 379.54059
90.094727 81.84391 379.57657
91.049759 77.641739 379.56836
90.587959 77.692238 379.76462
91.879402 66.231262 379.49557
91.816673 67.118431 379.65665
91.734489 71.005867 379.72205
91.57058 72.078293 379.63931
90.192184 82.721489 379.78903
91.700394 70.446007 379.75793
90.361671 82.772743 380.00781
89.854156 84.502449 380.03281
91.475609 73.456657 379.79037
90.881355 80.541237 379.97446
90.380699 83.016907 380.13498
89.486847 86.48011 380.4238
91.713867 70.750557 380.02582
91.21199 76.06572 380.0954
91.203262 76.567085 380.09583
89.373253 87.116913 380.46469
91.207916 77.324829 380.21783
91.249733 77.557144 380.19464
90.585449 80.262901 380.4267
90.76075 80.972305 380.45444
89.308868 87.478302 380.60202
90.750565 81.681686 380.44122
90.652557 82.146759 380.44763
89.740822 87.001823 380.7301
90.474541 82.602188 380.66827
90.424706 83.033508 380.5506
91.093307 79.395027 380.62823
90.301064 84.31591 380.83624
90.223145 84.483871 381.01859
90.266212 84.745911 381.12552
90.06115 85.448448 381.05505
89.939957 87.536003 381.62048
90.025467 89.454224 381.82129
90.968971 92.428879 381.44827
98.871567 92.366318 379.76624
98.69429 92.705757 380.12097
101.06055 89.362724 381.87778
73.3097 88.747078 380.31873
73.256119 85.560577 380.89487
73.850212 89.494629 380.8909
75.877525 90.96331 381.90756
76.020363 86.230759 383.0842
76.555031 86.34491 383.13123
77.165009 86.564156 383.29907
77.060669 87.118057 383.84723
77.558945 87.215637 383.90695
77.31115 87.466812 384.14139
77.673508 87.407005 384.15094
77.554947 87.734787 384.3158
77.323311 88.613708 384.6044
101.21828 88.693085 381.39963
91.852295 65.100632 379.42517
90.282143 84.168472 380.66211
75.893867 85.193207 382.47537
75.630852 85.2108 382.47058
91.398163 76.645073 380.21371
89.762848 90.757088 381.73044
89.016548 89.043129 380.81805
91.380905 75.569481 379.55121
100.80134 89.139153 384.55862
76.443466 89.076042 383.8187
100.80348 88.5466 384.8602
94.769547 94.107132 381.43417
94.192665 94.028801 381.73178
93.307159 93.84079 381.99933
93.091881 93.560928 383.03778
95.223572 93.716896 383.23856
93.509972 93.579567 383.45035
94.374725 93.665627 383.85468
94.01123 93.5942 383.99701
95.085335 93.638031 384.22424
95.108261 93.589966 384.48596
94.320755 93.542816 384.95847
95.118805 93.548439 385.47513
97.410339 93.385139 381.03052
97.781319 93.186562 381.05017
96.043182 93.795471 381.4743
96.996552 93.449081 381.38141
96.43718 93.601486 381.78897
96.894379 93.386246 381.9397
96.045273 93.608383 382.39764
96.482201 93.498917 382.31631
97.377045 93.144112 382.36652
96.205795 93.49707 382.62939
97.681877 92.939407 382.53561
96.959778 93.24559 382.74017
97.209732 93.085167 383.08139
97.245247 93.157196 383.40375
97.700668 92.903214 383.53296
96.83638 93.295074 383.79123
97.523605 92.991623 384.02893
98.094315 92.693588 383.83957
96.794449 93.247398 384.21191
97.916924 92.787247 384.33832
96.617455 93.390793 385.45999
96.357315 93.444016 385.0665
96.149826 93.491142 385.25201
98.046455 92.702675 385.02069
96.264816 93.482605 385.67215
98.023384 92.757301 385.48099
99.551468 91.610649 381.25238
99.55867 91.522629 382.09357
99.109436 91.958138 382.23099
100.21264 90.64447 381.91696
98.817703 92.190865 382.44165
99.099525 91.899391 382.49213
99.074142 91.828651 382.75262
99.183517 91.669479 382.98242
99.480682 91.519951 383.54681
100.53291 90.183456 383.94919
99.381378 91.698936 384.65213
99.200089 91.785255 385.10443
100.01342 90.891006 384.94745
100.14471 90.597267 385.26361
99.317307 91.756653 385.84149
100.202 90.100616 386.05685
102.88405 84.317757 381.53973
102.47407 86.061989 382.03683
103.15011 83.381805 381.27005
103.02009 83.413773 381.55704
102.96434 83.620987 381.64981
102.64485 84.58828 382.07233
102.0426 86.091103 382.85892
83.168068 94.84359 380.85635
82.940308 94.538315 382.48657
82.903061 94.543289 381.92361
82.608871 94.795776 380.75458
82.070061 94.410103 382.26202
81.825104 94.387657 382.60239
81.275742 94.191109 382.96661
78.981834 93.877777 380.30658
78.570999 93.637558 380.93036
78.407608 93.502998 381.09085
78.248871 93.369347 381.25388
77.934814 93.127701 381.41556
78.126205 93.594574 380.56461
84.56147 94.95266 380.3699
85.069443 94.568794 381.90027
85.731888 94.450661 381.74442
85.067818 94.518074 382.15546
85.512756 94.479385 381.88187
84.396416 94.654228 382.05161
85.065277 94.462158 382.40979
85.08654 94.480667 382.67465
84.092163 94.554314 382.82794
84.695694 94.634293 383.22754
84.222633 94.637184 383.23331
85.388145 94.509315 383.59515
79.322479 93.190384 383.69275
79.628014 93.352295 384.11041
79.642578 93.315903 384.36725
80.087448 93.398041 385.03531
81.010216 93.98761 385.51605
81.021591 94.028145 385.78174
79.957489 93.8629 381.92749
80.211082 93.745361 383.88321
79.427086 92.672775 385.80417
102.70029 84.539536 381.09335
102.62103 84.86496 380.61176
101.7278 86.330086 381.11517
75.89151 88.373482 383.71411
75.625237 88.461746 383.43069
75.829475 89.127632 383.4646
75.596214 88.839027 383.30365
75.172684 88.911247 382.94891
74.989403 89.014709 382.78635
75.234909 89.423965 382.82935
101.90677 80.106743 380.34723
74.589256 87.869514 382.64111
74.0214 87.669479 382.24362
73.75563 88.019135 381.92899
73.544518 87.986473 381.71347
73.304657 88.457344 381.26279
99.743393 90.890121 386.16095
99.286934 91.560249 386.13782
100.66806 88.947281 384.41721
101.25085 87.670105 383.57043
100.78657 88.880028 383.97607
98.865158 91.939941 386.03705
99.732979 90.91745 385.15564
99.566277 91.141312 385.16025
99.263016 91.484146 385.29309
99.766983 90.878319 384.94876
98.938896 91.824928 385.44623
99.988342 90.576317 384.54529
99.607986 91.100349 384.9425
99.108253 91.615234 384.92615
98.417229 92.282524 385.78769
100.30415 90.051872 383.68451
99.518013 91.213303 383.83081
99.430275 91.328804 384.43457
99.293968 91.459068 384.57578
98.737381 91.950569 385.12088
98.314697 92.320198 385.53586
100.9289 88.735725 382.61963
100.1606 90.230629 383.4855
99.053535 91.666527 384.63815
101.52959 87.266975 381.55453
101.38663 88.030182 381.95609
99.791733 90.864136 383.7211
98.794243 91.868073 384.71512
99.861748 90.683479 383.46402
99.695511 90.908112 383.46637
99.15551 91.549622 384.01746
98.856987 91.717445 383.96057
99.063011 91.579254 383.75089
101.15334 87.863388 381.09882
98.799927 91.751701 383.66132
99.006226 91.442436 383.26868
100.58368 88.929276 380.52826
100.17795 89.624374 379.94095
100.00285 90.146957 379.99411
74.279762 86.596207 382.32477
73.887413 86.04438 381.89905
73.445175 86.227409 381.61594
73.32901 86.756889 381.61642
93.454338 93.014297 384.51993
102.51279 82.266327 381.97687
102.1465 82.643456 382.55252
101.93822 81.088348 381.92334
101.69497 81.390121 382.3681
101.62744 82.659149 382.9274
101.4406 84.15786 383.40634
101.25744 83.043602 383.2453
101.0198 83.499718 383.49329
100.80566 84.402969 383.78494
100.53322 84.113762 383.82703
100.58683 85.153152 384.147
100.31879 85.01519 384.22055
100.23026 85.526932 384.54501
86.934685 94.391541 382.44196
86.815971 94.335854 382.32483
100.7914 88.853203 380.51419
101.2601 88.481155 383.64188
101.21493 88.271179 384.04782
101.14118 87.681618 384.32626
100.96049 88.601166 384.49796
77.588799 91.291229 383.82187
78.40799 91.726555 384.59583
78.290581 90.994263 385.13556
78.984306 91.928665 385.41766
78.775314 91.580803 385.52124
78.991249 91.805023 385.71594
103.10531 82.058792 381.0191
72.844139 85.928505 380.12189
80.141655 93.045853 385.423
91.661201 68.127235 378.70233
74.068718 84.289017 380.76291
74.993507 84.07412 380.93146
89.553391 89.224945 380.89908
100.50069 89.002869 386.49756
100.60223 88.907181 386.48648
100.15814 89.136169 386.65442
74.166794 89.715042 381.16663
74.783936 90.285629 381.28662
74.070511 86.200943 381.9191
73.905113 87.670959 381.86719
74.680901 89.845573 381.65002
74.90155 89.089317 382.32571
75.473557 90.692459 381.67401
74.473579 87.128853 382.383
75.909912 91.097328 381.74353
75.247536 89.599274 382.41705
76.53627 86.943619 383.66104
76.937805 87.69886 384.14188
78.04425 87.972282 384.63385
90.416733 78.798241 378.94208
90.511383 79.76223 379.21503
89.931511 83.05574 379.39777
90.734657 80.632904 379.53256
90.576889 80.609787 380.17371
90.613853 81.30159 380.09259
90.691544 80.08374 380.33725
91.060791 79.495094 380.42218
90.514412 82.725624 380.29413
90.547951 81.333908 380.52023
90.552582 82.172676 380.70407
89.847336 88.750008 381.66327
99.867058 88.61882 379.70337
100.09358 89.057251 379.76657
98.671257 92.462288 379.70111
102.52641 84.148666 379.87497
102.30044 84.607079 380.02887
99.288475 92.011299 380.00204
103.17365 82.703827 380.28479
100.61977 88.305054 380.32938
103.17546 83.295242 380.35553
103.09675 83.840233 380.45203
103.17861 83.287933 380.62793
101.07861 87.189156 380.60428
102.86874 84.478127 380.5769
102.05927 85.766579 380.61533
101.09985 87.698753 380.81351
101.54496 86.41111 380.83685
99.139069 92.079697 381.10925
102.9724 83.593376 381.3175
102.87528 82.792969 381.57693
99.875 91.096901 381.56708
97.723267 93.043884 381.75989
102.86037 83.192101 381.66327
100.82646 89.474823 381.63528
100.40226 90.187256 381.53119
98.319595 92.666695 381.79483
102.67941 83.244736 381.94043
102.78484 83.73835 381.76193
100.85343 89.483551 381.89743
99.594322 91.454887 381.87057
102.61178 83.819008 382.05591
99.201851 91.865044 381.78986
102.57014 83.413536 382.10361
102.4857 84.167549 382.19556
100.55657 89.918884 382.06027
100.18714 90.486153 382.22964
102.34302 83.511299 382.42477
100.65639 89.79631 382.31799
100.38259 90.156502 382.61725
102.37912 85.123764 382.37598
100.55956 89.82402 382.74701
97.999886 92.647308 382.95151
101.49699 87.927841 382.70587
101.86328 85.271072 383.21753
102.03884 85.689621 382.82602
101.36777 87.954193 383.1445
99.56575 91.327225 383.37192
98.112083 92.693695 383.45755
101.29224 88.168327 383.26944
100.66677 89.528931 383.30157
99.452087 91.511124 383.54184
101.62387 86.144958 383.41571
100.5491 89.883591 383.68314
100.5183 89.87339 383.42093
101.41241 86.366714 383.71524
101.41282 87.380905 383.59842
101.43912 87.055168 383.63193
100.86279 89.159897 383.79776
101.12986 87.902252 384.14832
100.52455 89.947395 384.08691
99.932098 90.948936 384.22919
99.738983 91.229576 384.14493
98.237129 92.564377 384.51465
100.96912 88.573151 384.25433
100.87288 88.013451 384.61102
99.770935 91.156403 384.55273
100.7204 88.266365 384.89249
100.46949 88.890213 385.28961
97.562744 93.061333 385.36646
100.29564 87.518532 385.48718
99.926018 90.800278 385.224
100.03667 90.741516 384.72134
98.820389 92.071144 386.45062
75.079155 83.116394 378.80139
75.30407 83.019875 379.436
90.554314 80.95327 379.58615
102.55524 81.536293 381.43961
102.17346 81.17868 381.66812
102.34324 81.615097 381.76013
102.56389 82.012848 381.69522
102.70592 83.023796 381.86987
101.91785 83.551064 383.00565
101.65457 83.892044 383.23477
101.02058 85.757042 384.05994
89.381058 92.951553 378.02979
88.973511 92.912834 378.8649
89.209862 92.2752 378.93896
101.29211 85.961632 383.8197
100.2879 85.931587 384.7124
100.47488 85.894859 384.53268
100.60242 86.325279 384.64017
100.08848 85.537285 384.75513
99.189636 91.499176 386.68301
90.266624 81.32972 378.95804
101.21191 88.825417 382.17896
101.077 89.04126 382.48392
101.36746 88.413727 382.51236
100.92993 89.117699 382.85022
101.03364 88.806786 383.13376
89.135178 92.494156 379.69327
89.613419 85.108932 379.93872
89.600586 91.998108 380.89581
96.119408 93.968071 379.85046
97.93898 93.036568 379.61197
96.316803 93.996666 380.76886
96.456055 93.861053 380.9982
94.777374 94.14032 381.46182
97.727074 93.085831 381.49527
94.916481 93.7192 383.88123
100.86607 89.447617 382.47687
95.638344 93.59317 384.17099
95.141647 93.617622 384.48694
94.893776 93.62558 384.82132
100.75551 89.420937 383.68738
95.100647 93.601227 384.9299
95.63195 93.57222 385.22952
100.54151 89.774986 384.41751
100.25225 90.352745 384.65219
73.201653 84.571251 380.12469
88.702812 92.678528 379.39917
84.549232 94.773079 381.202
85.034264 94.608177 381.61539
87.246109 93.552452 381.13748
87.084061 93.81086 381.21863
85.517654 94.541962 381.50397
84.61808 94.556374 382.22934
87.819809 93.175552 381.26431
87.540863 93.450363 381.61398
87.783302 93.125832 382.05728
84.924789 94.564545 382.96747
88.031441 92.889214 382.25049
87.44677 93.550049 382.44727
87.435806 93.481133 382.71066
84.944023 94.617661 383.90588
84.402397 94.650803 384.00259
86.307167 93.999809 383.82706
85.514297 94.309479 384.27386
84.521072 94.733307 384.94522
84.313995 94.775772 384.99838
73.290627 84.600807 380.36459
73.501434 84.373795 380.41339
73.655373 84.747749 380.82901
75.563759 83.535408 379.9704
74.21312 85.490463 381.61548
91.18158 77.91172 379.86703
73.699379 88.740044 381.27203
75.244759 90.994568 380.20636
75.71357 91.601799 380.08533
75.555122 91.223061 380.35297
73.764618 88.140717 381.59125
73.9645 88.469391 381.69257
75.77813 91.483803 380.85962
74.68808 89.596237 381.89377
74.384727 88.23584 382.14771
75.390556 90.527161 381.82071
75.017799 90.063705 381.88565
74.64257 88.460175 382.35028
78.088112 93.408371 379.97296
77.478355 92.604469 380.73328
78.046509 93.157104 380.13705
76.759987 91.960609 381.52591
77.42318 92.356697 381.48969
77.653473 91.973991 382.79907
77.945816 91.950645 383.12454
77.844131 91.708038 383.32007
77.575417 91.631119 383.19601
76.442436 86.595543 383.43423
78.16967 91.791458 383.49518
77.998749 91.632736 383.53748
78.154724 91.465378 384.5856
77.849121 90.652229 384.85367
78.124756 90.876099 385.0321
77.68045 88.305244 384.72083
78.344376 91.204079 385.10657
83.346512 94.874535 380.11417
78.399834 90.752548 385.5022
78.342216 89.379608 385.42538
88.886497 90.628227 381.09451
89.268509 89.898911 381.04492
89.392311 90.188126 381.03839
89.289902 89.066673 380.86472
89.539185 90.507286 381.18423
89.60276 90.967339 381.2822
89.352119 88.66481 380.85114
89.854584 90.293976 381.14301
89.990486 91.171356 381.3443
90.138008 90.913452 381.24915
89.532875 87.864449 380.71719
89.727608 88.488411 380.95419
89.919243 89.899254 381.09052
90.06105 90.505379 381.16724
90.411255 91.534981 381.36697
89.477631 86.885818 380.61877
89.682289 88.05024 380.82187
89.590263 85.801315 380.38892
89.756592 86.81588 380.63138
89.838341 85.287621 380.30191
89.649902 86.086967 380.44943
89.657822 86.107155 380.44928
89.617165 83.685066 379.8735
89.805069 83.876877 379.94055
90.604988 91.155762 382.10428
91.417656 92.829445 381.53613
91.416435 92.580963 381.61813
90.937706 91.643539 382.03778
91.834587 93.051247 381.49249
91.172325 91.952568 382.12039
91.453293 92.379837 381.92758
92.108688 93.112106 381.59778
90.375137 82.602623 379.74689
91.783966 92.612511 382.02383
90.376259 83.964165 380.58606
91.715744 92.422836 382.22458
92.262047 92.85331 382.16714
98.998276 92.102264 379.64441
99.222137 91.732399 379.64877
99.727234 91.360481 379.93497
99.561913 90.042038 379.56537
99.7062 90.622566 379.62512
99.987267 90.448463 379.85791
100.15991 89.398842 379.83789
99.005898 92.318878 386.3862
101.83848 85.423706 380.26575
101.89899 80.501106 380.12866
90.961914 65.014008 378.99826
90.864182 65.990639 379.14462
91.150597 65.638161 378.89294
91.235481 65.005722 378.88736
91.409386 65.376785 378.84399
91.915009 65.197823 378.93436
90.764008 66.182739 379.03174
91.473305 66.680847 378.84772
92.042549 65.976959 379.30756
92.164825 66.208534 379.2645
92.261955 65.360016 379.34415
90.467735 67.23732 379.07947
90.744888 67.688744 379.04306
90.63237 68.062225 379.03156
90.877625 68.2173 379.064
91.316383 67.973839 378.80115
91.31086 67.22438 378.81686
91.587013 67.514992 378.76926
91.588753 67.968193 378.83078
91.707108 68.344032 378.98517
91.611137 68.563652 378.83939
91.906235 67.746719 379.23099
92.052223 67.508812 379.12079
92.15181 66.838104 379.29382
92.16523 67.754128 379.27988
92.332329 66.62471 379.0481
90.929047 69.310768 378.9834
91.35466 69.074677 378.83609
91.482346 69.2995 378.8721
91.931465 69.910675 379.24976
92.207245 69.599602 379.18845
90.411186 72.547874 379.19522
90.575172 71.120552 379.01358
90.569305 73.967789 379.24005
90.713326 71.642715 378.99994
90.696594 72.705101 379.10541
90.895515 73.672623 378.86542
90.84964 71.110817 378.98465
91.066841 70.990898 378.7471
91.130066 73.060013 378.89142
91.135941 73.660675 378.94025
91.258804 70.726677 378.85001
91.277832 72.075844 378.81693
91.27803 72.523438 378.86667
91.39946 70.948288 378.83316
91.402885 71.247498 378.83124
91.400742 71.549881 378.84637
91.430885 73.469414 378.89362
91.394722 73.519089 378.95578
91.345154 74.101082 379.05228
91.649445 71.686157 378.87579
91.630135 73.361458 379.02264
91.725876 71.938141 379.16739
91.739677 73.291443 379.28256
91.834099 72.315933 379.37524
90.723824 74.595604 379.13171
90.475517 75.157578 379.26382
90.785141 75.066902 379.05038
90.472626 76.099182 379.319
90.904327 76.108475 379.16602
90.684082 76.848831 379.29349
90.749512 77.640137 379.29025
91.333176 76.003021 379.34161
91.178146 76.582703 379.28711
91.123779 77.262962 379.28067
91.246109 77.662506 379.64035
100.64285 82.531036 383.19073
100.49789 82.975006 383.39499
100.97472 82.013428 382.88681
101.57869 81.973602 382.56015
75.18074 83.902596 380.96988
75.360092 84.261185 381.47028
76.051651 85.645882 382.78876
76.913216 86.346558 383.20215
77.838959 92.454819 381.66251
78.210312 93.093353 380.33655
78.45829 93.160057 380.39111
78.77021 93.430519 380.12506
78.328323 92.000549 383.37921
78.510086 88.862808 385.2999
78.738182 92.208099 383.31317
79.008995 92.375969 383.22095
78.775925 92.330872 383.11508
79.917313 93.665192 380.35196
79.95594 93.760239 380.14993
79.030754 91.423035 386.06445
81.160919 94.287025 380.04218
81.651649 93.970612 381.02298
81.469376 94.096191 380.5361
81.752029 94.230225 380.43277
81.934418 94.133537 380.86276
82.458481 94.557709 380.19058
82.554382 93.913422 381.81058
82.964355 93.793518 382.52835
83.166435 94.274712 381.40768
83.423317 94.584793 380.67813
83.039886 93.625221 382.85315
83.225609 93.802818 382.54291
83.3311 94.042732 381.94614
83.695496 94.592628 380.63797
83.694122 94.2882 381.38971
83.906952 94.449043 380.92603
84.075584 94.534393 380.73846
83.661346 93.865204 382.33206
84.237045 94.265678 381.2991
84.066833 93.88768 382.23633
84.091064 94.498604 382.12637
84.491829 94.573586 380.60892
84.684921 93.995834 381.74512
84.625832 94.17675 381.32288
84.902702 94.161346 381.24591
85.133469 94.03466 381.44565
85.485847 93.836975 381.70523
86.081429 93.603867 382.01172
86.503937 93.968124 381.13077
86.763268 93.833649 381.1835
88.314919 90.960365 381.28555
88.627777 91.086212 381.11609
88.746025 89.495895 381.09827
88.74102 89.936523 381.07178
88.780907 91.276375 380.93158
88.959572 91.35141 380.7196
89.044281 89.479431 381.0004
89.094177 86.438004 380.7074
89.224197 86.660728 380.7356
89.230934 87.827164 380.87598
89.373047 91.394218 380.58783
89.888054 84.167519 379.95297
90.156837 88.820854 381.38235
90.410751 90.033211 381.49844
90.679825 91.988167 381.45441
90.369118 92.309669 381.72141
90.881996 92.764771 381.72772
92.600121 93.251541 381.76535
92.486816 92.871407 382.37714
92.677719 93.818306 381.22729
92.652489 93.073799 382.20157
92.642754 93.370895 381.52048
93.001411 93.026108 382.45618
92.986107 93.317223 381.81335
93.192078 93.205307 382.134
93.441772 93.508766 381.47116
93.521454 93.76265 380.9906
93.686302 93.973305 380.77264
94.383461 94.028877 380.47839
94.358849 93.874153 380.75266
94.322983 93.142227 382.44788
94.419693 93.693832 381.15869
94.643021 93.566833 381.39041
94.891464 93.877502 380.60178
94.968681 93.367477 381.78006
95.130219 93.416222 381.59915
95.275421 93.802368 380.67902
95.300209 93.47374 381.39133
95.553345 93.352158 381.49802
95.508163 93.230576 381.7486
95.570335 93.77449 380.61749
95.734596 93.819473 380.36362
95.993103 93.684326 380.47684
96.34491 93.778175 379.97195
96.182495 93.733055 380.16934
96.891869 93.747284 379.85709
99.001534 91.594894 379.76334
100.18703 88.654167 379.86218
100.17329 88.058876 379.93948
99.836342 84.761589 384.06796
100.50479 83.810791 383.68024
101.64079 85.989037 380.5929
100.85328 83.997986 383.5694
91.067612 65.861855 379.33099
72.986618 86.972 380.6579
73.364624 87.762138 380.29803
73.547386 88.698051 380.3064
74.314598 83.715576 378.56625
76.013519 84.404724 381.40237
76.075897 84.557175 381.57336
73.79483 88.894157 380.3335
73.847961 89.293449 380.37936
73.880447 89.723946 380.63693
74.659775 83.847244 378.18372
74.54599 83.999573 378.09586
74.020927 89.668793 380.35907
74.279015 89.750412 380.27411
74.362885 90.362289 380.94946
74.300766 90.343315 380.66586
74.326576 90.121513 380.32013
90.9907 68.399391 379.11902
90.728561 70.770332 379.51636
91.201332 68.707634 378.87112
90.972771 69.872108 379.18164
91.000893 70.261711 379.13602
90.952911 70.550949 379.24625
91.325439 69.785568 378.81354
91.533661 69.990349 378.81152
90.986183 71.84314 379.04279
90.810593 73.144745 379.45151
90.790665 73.446419 379.59473
91.837311 70.221222 378.95425
91.762024 70.601822 378.78229
90.972206 73.178368 378.99915
91.965851 70.438568 378.74963
92.08136 70.278198 378.82669
91.833122 70.848976 378.76526
90.616432 75.347733 379.63477
90.526871 75.916748 379.77283
90.503258 76.865234 379.79364
91.799255 71.791557 378.746
90.645409 75.557503 379.27887
90.241592 78.431442 380.00223
90.210197 78.712379 380.13589
91.628883 73.588272 378.9968
91.663811 74.048759 379.25937
91.601601 73.990036 378.92313
91.556396 74.288795 378.98984
90.312386 79.410042 379.66431
91.357155 74.844032 378.99396
90.566689 79.110886 379.62488
87.079231 93.097862 382.2402
86.939888 93.435852 381.74673
91.937424 73.588226 378.4838
90.164536 80.521164 379.78519
89.863525 81.970345 380.12231
90.859077 78.055809 379.2691
87.742332 92.378891 381.8699
90.175362 80.864929 379.66913
89.481407 85.328491 380.66855
87.196106 93.242516 381.80188
90.950577 79.390442 379.37949
90.870148 79.687927 379.44327
89.967339 82.833336 379.8158
89.73494 83.870346 380.28113
88.267448 90.803688 381.80679
88.174698 91.483467 381.80765
87.887177 92.195129 381.75653
91.28833 78.787239 379.34271
90.359673 81.247902 379.53354
89.962891 83.237198 379.74908
88.366371 91.129616 381.42014
88.032051 92.017418 381.63
91.023956 80.041527 379.36829
90.950119 80.485237 379.47552
90.712669 81.180145 379.51535
90.605835 81.493172 379.53268
88.598808 90.400505 381.38446
87.704422 92.974213 381.42526
88.381706 91.369598 381.32025
88.284332 91.904564 381.22495
88.181145 92.338768 381.31741
88.002327 92.511421 381.37387
90.148491 85.275558 380.17746
89.849854 86.294083 380.4949
88.525528 91.737366 381.23279
88.240456 93.024628 381.48389
89.827049 88.231369 380.78967
88.710236 92.255463 381.32755
89.181114 90.927155 381.03638
89.324799 91.008949 380.8165
88.27832 93.407005 380.56204
88.271553 93.490601 380.39108
88.370857 93.362778 380.44754
89.140312 91.760323 380.50754
89.171043 92.413658 378.6933
88.955856 92.671768 378.54395
89.084801 92.998367 378.18207
93.140427 93.730286 381.12259
99.754013 86.740044 385.35468
99.832863 88.335487 386.07159
99.981987 85.962936 384.76993
94.589722 94.149376 380.33105
95.864594 93.220039 381.69388
96.041336 93.193718 381.6969
100.34796 88.148705 385.50519
96.838913 92.676643 382.58151
95.084435 93.93335 380.45953
99.706573 90.786774 385.33011
99.788528 90.665596 385.54343
96.335846 93.234001 381.42712
100.57388 87.977798 384.95682
100.68633 87.959457 384.7178
97.689529 92.32238 382.90714
96.636238 93.178833 381.35037
100.86416 86.653313 384.27625
95.358238 94.025543 380.23288
100.90745 87.595863 384.36505
98.617241 91.560646 383.41025
101.38233 80.419128 381.26532
101.76836 81.457985 382.10834
101.00101 86.736 384.10086
100.3027 89.904106 384.67874
98.962616 91.22657 383.20731
98.573631 91.783005 382.93225
101.58894 80.364647 381.0127
101.8833 81.72271 382.17776
101.71896 83.613113 382.94507
101.09833 87.519104 383.97672
100.63692 88.950256 384.44052
98.888435 91.458588 382.99622
101.96615 82.27047 382.35013
101.00148 88.057884 384.03
101.93745 83.543793 382.746
102.04314 80.866844 381.23499
98.839104 91.853882 382.1897
98.070343 92.719124 381.10883
97.678299 92.889404 381.09781
101.45755 86.643021 383.22064
99.761452 90.708954 382.69263
98.677933 91.828842 382.65891
98.453468 92.174179 382.02185
98.140419 92.537971 381.46066
98.23999 92.316978 381.77002
96.986771 93.32531 380.26999
102.32743 81.057777 381.03491
101.61478 86.673203 382.73508
99.964355 90.521156 382.3421
100.06232 90.360054 382.44687
99.83152 90.767937 382.11346
100.85191 89.179131 382.47202
99.690163 90.999702 381.95993
98.83255 92.02346 381.58047
98.808235 92.117332 381.32675
98.442993 92.449554 381.22113
98.419769 92.617348 380.80786
102.26156 85.089684 382.14749
102.14989 84.909828 382.34451
98.995163 91.949333 381.25665
99.966003 90.675247 381.57635
99.26033 91.633148 381.23416
99.29435 91.538216 381.46027
97.400314 93.696472 379.61694
102.53298 81.158714 380.20975
102.40263 84.402573 381.96259
99.578957 91.256058 381.15692
99.290123 91.826988 380.58771
99.993309 90.635483 381.1369
102.65504 83.89505 381.58029
99.504211 91.514351 380.59851
102.96445 82.171913 380.38135
103.01292 82.620323 380.71521
102.89863 83.917686 380.81418
103.04483 82.912048 380.61551
98.748795 92.255676 379.60101
73.316246 84.037361 379.75586
73.228851 84.568642 379.63522
73.579735 84.05957 379.16364
74.163544 84.044655 378.27319
89.388 86.687019 381.32932
89.05278 88.744331 381.4892
89.296677 85.943932 380.9183
89.986839 81.228958 380.52615
89.916046 82.635391 380.54453
89.802666 83.888535 380.82645
89.807281 83.471191 380.48685
90.400085 77.920288 379.78442
90.427505 80.846535 380.13419
90.297394 84.088898 380.11838
90.804306 78.307983 379.20731
91.197899 77.630447 379.00156
100.3475 89.306999 385.03546
100.49405 89.651741 383.82025
100.49279 89.717552 382.48807
101.61134 80.358429 380.60703
101.81714 86.481003 381.64056
102.3977 85.148933 381.62909
101.25637 87.810692 381.55435
100.83143 88.848526 381.1694
102.4548 85.17807 381.36221
102.51675 81.2117 380.62915
100.65228 88.855209 380.77097
100.41444 89.373207 380.5614
99.68689 91.257668 380.45966
100.18827 90.037201 380.39984
102.82146 81.643875 380.41461
100.24637 90.013435 380.74185
99.930801 90.701225 380.20993
99.382797 91.549202 380.08206
102.94533 83.217789 380.14499
73.468369 88.12027 381.46033
72.980156 85.700195 379.99326
73.341194 88.521683 381.02432
74.949738 90.853104 380.72385
