# .PCD v0.7 - Point Cloud Data file format
VERSION 0.7
FIELDS x y z
SIZE 4 4 4
TYPE F F F
COUNT 1 1 1
WIDTH 740
HEIGHT 1
VIEWPOINT 0 0 0 1 0 0 0
POINTS 740
DATA ascii
140.53561 83.068169 354.30716
141.23709 81.961853 356.04559
140.69107 82.820778 354.66898
140.33008 83.174202 354.18344
141.33452 81.499847 356.85568
140.82565 82.175018 355.8024
140.65727 82.405128 355.45404
140.91692 82.318024 355.46341
140.35233 82.696251 355.11536
139.86095 83.445618 353.79996
140.96255 81.318947 357.30121
140.91444 81.169937 357.51541
139.43816 82.837807 355.06482
140.46324 81.008957 357.81729
139.61133 80.780899 358.21414
139.70087 80.676842 358.34045
139.01767 81.011131 357.92841
138.78145 81.112427 357.80835
138.45972 81.264954 357.58771
137.84479 82.35006 356.08344
137.6489 82.233994 356.29355
137.63321 82.442123 355.95496
138.89194 79.456245 359.66483
137.04439 82.176071 356.21072
136.51997 82.807564 354.98083
138.60445 79.319588 359.72845
136.80994 82.695946 355.25266
137.73706 80.339272 358.4754
140.22162 81.035545 362.92123
140.00429 81.121223 362.81387
136.07982 82.421547 355.61407
139.6443 81.284164 362.11572
140.7552 80.959595 364.6604
139.72003 81.210426 362.7934
137.07307 80.303101 358.38025
136.09821 81.98571 356.28436
135.75505 82.203499 355.82776
141.09473 80.977562 364.97943
138.94012 81.39521 361.6478
136.89793 80.411446 358.25156
135.66145 81.882935 356.32727
140.68565 81.335899 365.24805
135.80681 81.639847 356.73868
138.52766 81.419998 361.45602
136.87354 79.323158 358.94778
135.54182 81.785454 356.45358
140.45052 81.368599 365.08517
140.35022 81.337547 364.91727
138.87872 81.376396 362.33676
138.33392 81.35228 361.65948
136.39041 79.559044 358.6962
138.02693 81.36834 361.29782
136.55214 79.250824 358.87155
136.02304 79.795792 358.58453
137.99458 81.232796 361.88156
137.66202 81.312424 361.36429
140.58423 81.960358 366.48743
137.44972 81.361557 361.15918
137.77228 81.124672 362.11664
140.29314 82.043518 366.49271
135.68675 77.523918 359.29538
137.89365 81.292297 362.7467
140.14732 82.049011 366.76358
137.91301 81.294861 363.03738
139.84155 82.053169 367.01654
137.52423 81.113251 363.19516
134.52087 78.449249 358.82172
137.27159 81.069672 363.28915
134.75491 78.138153 359.58838
139.17868 81.801147 367.28061
136.26941 80.811745 362.9173
133.42407 79.002495 358.37573
136.06174 80.894585 363.33511
137.76903 80.988068 366.16013
133.92976 79.439644 360.75909
133.16576 79.079208 359.2291
132.8336 79.10865 358.90939
134.11694 79.242493 361.134
133.96362 79.377396 361.00388
134.48347 79.416031 362.23978
133.88853 79.635956 361.40552
133.99728 79.586716 361.55405
135.87982 80.655563 364.6456
135.8526 80.549889 364.89093
134.81619 79.129211 363.43625
134.39745 79.630135 362.4697
134.16238 79.593758 361.88205
132.78336 80.504547 359.79529
134.54002 79.505737 363.45789
133.76259 80.055954 362.14093
133.10918 80.379547 360.9173
132.83073 80.556519 360.39264
134.48961 79.44278 363.81354
133.56636 80.333328 362.51886
134.31668 79.636612 363.73523
133.85959 80.225815 362.79221
132.6465 80.68325 360.56644
134.02318 80.052559 363.56366
134.15382 79.833801 363.72653
133.13609 80.531723 361.9826
132.67511 80.837486 361.63089
132.94395 80.710106 362.64636
132.26195 81.094788 362.11816
133.53667 79.953171 364.93729
132.17598 81.14225 362.27615
133.4959 79.821907 365.16293
133.47331 80.114159 364.78085
130.75189 81.391975 360.50403
131.54749 81.366592 362.43372
132.80841 80.615021 364.49918
132.36214 80.952324 363.88876
132.11995 80.99218 364.05048
132.46666 80.945976 363.7327
130.71426 81.407051 361.49466
131.11749 81.45121 362.08771
132.15071 80.44352 365.28357
130.90129 81.522545 362.84799
130.05675 81.555496 361.63278
130.99417 81.486244 363.00592
130.74547 81.510109 363.10684
131.2244 81.14325 364.29126
131.10069 81.249512 363.88785
131.75801 80.038025 366.01343
131.33479 80.715714 365.11639
130.98386 80.97168 364.76813
131.50386 80.002373 366.11166
131.34795 80.295082 365.76016
129.79384 81.58139 362.74731
130.3024 81.099327 364.44452
130.8268 79.914383 366.27484
129.86438 81.428368 363.95969
129.62672 81.361122 364.05447
130.47295 80.00425 366.14835
129.77272 81.062675 364.55078
130.05743 80.164032 366.04556
129.11887 80.601845 365.22513
129.1207 80.663567 364.95996
138.59596 81.133484 367.34824
138.46645 81.04261 367.23923
138.043 81.132141 366.33801
137.37773 80.830795 365.90234
140.25421 79.6064 359.51324
139.93478 79.44928 359.7226
137.0927 80.649963 365.7489
137.42625 81.047958 362.8313
138.6657 79.909782 359.20578
135.82327 80.686768 364.35843
137.33173 81.04834 361.51587
138.69405 80.598663 358.44083
137.04675 79.042656 359.33582
137.26965 79.394653 359.15851
136.85431 78.754715 359.22064
137.9843 80.917923 357.96451
136.34953 78.569504 359.16791
138.25285 81.508827 357.2677
135.92482 78.191498 359.10983
137.00894 80.537056 358.14471
135.18411 77.867401 359.71942
135.16837 78.202446 359.70212
136.71046 80.761627 357.93893
134.84981 78.317551 359.22192
135.72169 80.014565 358.42999
136.05392 80.993652 357.58835
135.63293 80.839676 357.62854
135.81139 80.548744 357.97891
136.06366 81.172966 357.39813
136.66974 82.052628 356.25287
135.77875 81.319595 357.16141
135.79143 81.486702 356.95746
134.93829 81.910507 356.23151
134.95279 82.071365 356.01868
135.24803 81.888023 356.28094
131.58881 79.847267 366.3981
131.13176 79.857178 366.35019
130.27844 79.886078 366.39929
129.7735 80.161179 366.1311
129.51196 80.301682 365.86453
141.24886 81.032417 365.27353
140.08449 81.988335 367.09933
140.10292 81.053276 363.53064
141.24797 80.177162 358.54492
141.41614 80.339149 358.39679
141.67471 80.401459 358.04507
141.70013 80.633553 357.71085
141.09151 80.545952 358.29385
141.91527 80.838547 357.23669
139.24202 79.381035 359.82535
140.66513 80.312538 358.60928
139.38428 80.087242 359.06662
141.73125 81.291527 357.0697
139.74092 80.23053 358.8725
140.15045 80.534019 358.4527
137.1559 80.857323 362.6235
139.34612 80.45356 358.61292
141.90538 81.711914 355.83228
141.65312 81.866142 355.97122
136.56609 80.697121 362.65131
135.62479 80.689476 364.01755
138.78967 80.409798 358.67358
141.56648 82.11718 355.35504
134.67177 79.319191 363.87125
141.60742 82.158897 355.09717
141.11404 82.206017 355.59351
141.62927 82.251862 354.85284
141.67343 82.374207 354.61853
141.37196 82.438133 354.86954
133.05186 79.940132 365.44339
133.8996 79.843063 364.43393
133.00151 79.778717 365.67065
135.60036 77.269882 359.73941
135.70764 77.562889 359.5484
141.27899 82.608643 354.35895
132.21033 79.813095 366.12772
141.06563 82.676224 354.48151
135.05428 77.646187 360.02661
134.84824 77.684853 359.8844
131.59357 80.342255 365.64441
139.81073 82.743881 355.21222
133.14458 80.669662 363.84091
132.76651 80.85833 363.47839
132.49678 80.96122 363.2048
130.79961 80.771591 365.11923
131.97644 81.12281 363.58633
135.50859 80.916176 357.5126
131.39958 81.406578 362.64902
135.1084 81.419891 356.8916
134.75706 81.766548 356.3942
136.05409 82.589333 354.98657
129.16095 81.058594 364.05936
136.05176 78.98291 358.81445
135.9581 78.768997 358.83517
130.59642 81.269089 364.06165
130.66887 81.138817 364.36154
129.388 80.789391 364.82123
129.34824 80.666306 365.09601
135.90033 77.855812 359.25726
137.00708 80.38562 366.01523
130.74385 80.337975 365.73203
130.24831 80.746613 365.19794
129.55818 80.499352 365.46347
135.05983 76.060349 359.78394
138.45164 80.089592 358.95389
138.20316 80.311897 358.59763
136.12581 80.586678 358.02493
135.55099 80.70874 357.76492
132.41866 80.171364 365.52542
135.70351 82.430702 355.50897
137.38416 82.823433 355.23318
134.75729 81.077904 357.25803
141.01875 80.008568 358.93845
134.33232 78.575882 360.44904
133.1331 80.668793 363.03922
133.44493 80.517876 363.79462
138.10954 80.460564 367.14761
137.46231 80.567795 366.35962
137.23495 80.529709 366.13293
129.66077 81.195702 363.79581
129.79456 81.326859 363.10587
129.96242 81.342201 362.53387
134.40915 72.484489 359.07932
134.54921 73.939247 359.24481
134.73935 75.646095 359.72638
141.32115 79.96109 358.70944
139.19621 81.480637 367.24731
134.58986 71.519043 358.68594
133.97508 70.585983 358.54468
134.03848 72.631935 358.77612
134.13124 72.981743 358.9071
134.29291 73.525558 359.1438
134.94431 75.232491 359.32315
135.07188 75.572685 359.32257
135.04192 75.816269 359.42859
134.77008 75.470123 359.67151
134.98918 77.267342 360.06094
138.97754 81.390411 367.16693
134.03223 69.96286 358.06824
134.43295 73.188782 358.62222
134.15868 71.425499 358.9476
134.58064 73.673637 359.02158
135.17751 77.045883 359.4758
136.07571 80.731865 362.57291
135.93575 80.629982 362.24725
136.64417 80.147568 361.42038
136.64799 80.244514 361.67355
135.56453 78.15876 360.0567
136.48685 80.150368 361.67892
135.87177 78.915733 360.47958
132.95007 79.082764 358.57092
136.19896 79.07383 360.45316
136.15266 80.381546 361.92963
138.06168 83.134644 354.60782
137.82011 83.149139 354.51141
134.67862 77.663025 360.2352
134.42024 77.932632 360.26678
138.91466 83.365173 353.96616
137.173 80.809914 361.65952
136.27135 80.923096 357.71271
140.82495 81.899147 356.39548
141.04761 81.588509 356.858
140.09584 81.851768 356.71304
140.56676 81.57148 357.07773
139.30615 82.666931 355.40219
140.20944 81.705902 356.94977
139.76292 82.072525 356.34003
139.44371 82.331032 355.9859
139.25523 81.991295 356.52853
139.22543 82.408371 355.85043
139.36751 81.839439 356.76163
138.85583 82.748505 355.3811
138.74266 82.902939 355.15015
139.80209 80.946983 357.99561
138.75563 82.448257 355.81058
139.3735 81.609467 357.09045
137.882 82.475815 355.85818
138.222 82.785904 355.32053
139.28169 81.078583 357.84772
139.19017 81.28067 357.63806
138.56557 82.10125 356.34897
138.45979 82.268417 356.12305
138.80399 81.823593 356.82703
138.24818 82.362175 355.99573
139.76492 81.22303 363.66086
139.99274 81.319962 364.29846
139.57089 81.32724 363.81866
139.62016 81.414299 364.15179
138.89047 81.377815 362.6203
138.90988 81.391525 362.91412
140.48807 81.791199 365.83841
138.48131 81.374458 362.43167
138.29512 81.337349 362.38412
139.88551 81.752098 365.3226
139.78023 81.7071 365.15201
139.67368 81.663887 364.9729
139.07878 81.494766 363.97461
140.2496 81.969109 366.16971
140.1481 81.929398 366.00684
139.84157 81.822075 365.4949
138.82826 81.489716 363.80188
139.35672 81.688805 364.94095
138.38347 81.418877 363.57156
139.51167 81.817772 365.44519
138.66943 81.598564 364.81943
138.62634 81.541885 364.22656
138.16272 81.414864 363.97324
138.20596 81.368805 363.5322
138.09946 81.333954 363.35941
139.70007 81.988564 366.25851
138.8241 81.723015 365.32062
138.78392 81.649696 365.00308
137.53754 81.258751 363.97183
138.78015 81.767319 365.76245
138.99927 81.842201 366.39136
137.86308 81.390244 364.77716
137.57898 81.310532 364.56473
134.2469 78.722488 359.34897
137.88359 81.380928 365.34491
137.01199 81.168144 363.86688
133.78165 79.025337 358.99139
137.03654 81.178612 364.44257
136.76157 81.063576 364.50461
136.25632 80.914406 363.66339
136.69749 80.847855 364.97314
133.16043 80.441254 361.52002
132.66687 80.700546 360.86029
132.45747 80.797798 360.72919
132.13667 80.986618 360.92456
132.03448 81.103119 361.23941
131.3956 81.307793 361.38885
130.55295 81.526817 362.23822
131.48288 80.958992 364.52795
129.98433 81.285942 364.20163
138.36058 81.265305 366.69748
137.47482 80.944031 357.77972
137.16507 80.753975 357.94626
137.25549 81.022011 357.66324
137.42 81.408218 357.3208
136.87915 81.129051 357.57507
137.05267 81.472099 357.18585
137.39661 81.953766 356.56049
136.50879 81.208664 357.45547
136.22501 81.349854 357.21167
136.71072 81.649231 356.78116
141.96591 80.513412 357.7038
141.33876 80.821785 357.85172
140.23698 80.312241 358.67865
136.80058 80.668427 362.54211
132.29279 81.042549 363.06561
131.63092 81.256348 363.44363
131.73019 81.265305 363.05539
133.66202 80.286621 364.1149
133.48659 80.263977 364.52997
134.74362 76.001236 359.51608
135.46803 80.681618 363.72589
135.57741 80.713486 363.39368
135.66139 80.711189 362.70038
135.84834 80.714401 362.61938
136.66299 80.890953 363.16458
136.56996 80.932785 363.41879
136.63379 79.652451 361.0101
136.74709 80.77375 362.78473
136.73912 79.973404 361.23386
137.10956 81.140831 363.62155
136.99858 80.441689 361.56506
137.35179 80.903564 362.56509
137.26602 80.730934 361.95444
137.59258 81.141518 361.2713
138.18137 81.353523 363.12445
141.11667 81.824394 365.9783
134.31464 71.723251 358.59518
134.06161 72.31382 358.78622
134.30528 73.261345 358.8934
134.45209 72.24073 358.66922
134.36937 74.509262 359.33881
134.58784 71.862503 358.60178
134.56575 73.879097 359.02533
134.5379 74.669777 359.49863
134.62569 75.107101 359.42844
134.71262 74.490791 359.12762
134.73404 75.814339 359.48465
134.74051 76.547813 359.67004
134.95543 76.306633 359.439
135.28979 77.299538 359.76205
135.44984 76.63179 359.34506
135.42239 77.291969 359.36978
136.85437 80.411743 361.9382
138.81247 81.723373 365.73901
139.32799 81.882751 366.09879
138.53766 81.451317 363.85434
138.29741 81.49202 364.84811
139.29224 81.586693 364.5166
140.31676 81.794044 365.73593
140.81187 81.49221 365.54297
140.99968 81.494331 365.6803
137.60553 82.744537 354.74329
138.39575 83.090111 354.35596
130.35471 81.363693 360.93643
130.61444 81.106491 360.44498
130.8907 81.184052 360.40445
131.22272 81.057198 360.15311
130.68686 81.572609 362.68713
131.28409 81.273094 360.93982
131.56842 81.054207 360.38412
131.94478 80.837105 359.974
131.65651 81.174187 361.06497
131.57185 81.37957 362.39264
132.4274 80.477951 359.69458
132.29149 81.111809 362.72552
133.67169 78.796555 358.60043
133.95134 70.761169 358.39972
133.95781 70.047554 358.37537
133.45271 79.975327 360.33908
133.57349 79.817612 360.47696
132.8485 80.831161 363.189
134.34972 70.720154 358.42276
133.06612 80.742638 363.38892
134.31578 73.733711 358.92343
134.29501 74.204353 359.00314
133.88579 79.203964 360.81891
133.84499 80.310196 363.02621
134.59027 78.011963 360.76422
134.49713 79.017159 361.54755
134.08618 80.123352 363.08035
134.60518 79.023491 361.73184
134.65755 79.154297 361.97427
134.90742 79.082634 362.54352
134.8398 79.25927 362.81796
134.92384 79.421852 363.01126
139.63504 83.138664 354.11826
138.28479 81.316406 362.41052
138.54591 81.418053 363.45422
138.89912 81.375626 362.62222
139.02592 81.344948 362.14008
139.85422 81.132881 362.59177
139.95494 81.474144 364.7345
140.67615 80.781349 364.03787
140.39879 81.192833 364.60217
130.43938 81.250114 360.72989
134.04494 78.824799 360.74457
134.18962 78.685997 360.78818
134.42177 78.742828 361.06973
134.55981 78.715919 361.2034
138.68687 81.362648 361.79614
134.14449 71.168785 358.41742
134.29901 72.761795 358.79584
134.44958 74.20163 359.29538
134.47311 72.595352 358.55222
129.8427 81.472359 363.77658
137.94904 80.502136 366.97144
138.17368 80.81208 366.99255
138.63751 81.306816 367.21207
137.10472 80.673553 362.26846
136.18022 79.867287 361.55704
136.08398 78.58596 359.02942
138.6786 83.20713 354.5318
128.94502 80.569763 364.92514
129.60008 81.005196 364.67474
129.29826 80.912827 364.40292
129.63467 81.363831 364.06454
129.55753 81.328102 363.53122
130.77171 81.134308 364.56146
131.38339 81.411736 363.26877
134.2879 74.018745 359.32172
135.84409 80.799828 363.82516
135.10135 78.584908 360.96198
135.42284 78.231041 360.30411
135.5361 78.689293 360.6918
135.53632 78.994881 360.83301
135.6387 78.290329 360.17398
135.93446 78.702667 360.31882
139.46387 81.974594 366.93063
136.52565 79.569962 360.87906
139.59782 81.986778 366.65411
140.02678 82.003883 366.57712
140.92807 81.88356 366.20636
134.80539 81.759766 356.09735
139.41917 81.27594 361.89825
139.25298 81.324493 361.69235
137.06473 81.487259 357.21152
136.46945 82.612206 355.44962
137.87445 82.701408 355.5502
137.92007 82.892143 355.22626
138.84108 83.230087 354.39197
139.23808 83.168953 354.48175
130.91803 81.453461 361.87112
131.70016 80.808746 359.88638
131.16185 81.421928 363.49615
131.44937 81.314232 363.69315
133.9715 78.479248 358.54947
134.24095 78.46476 358.66513
132.59276 80.958374 363.55743
132.85503 80.80043 363.95813
134.69058 78.282845 358.88208
130.33267 80.082718 366.25275
129.9525 80.101585 366.19757
131.48433 80.016991 366.43716
131.99637 80.211983 365.90411
132.36781 80.145935 365.81247
129.9379 80.665077 365.49277
132.19904 80.29863 365.67804
131.99225 80.612938 365.30386
132.57338 80.66404 364.99701
130.75192 81.051704 364.75
132.19662 80.79026 364.83588
129.97905 81.215591 364.40262
131.17546 80.986198 364.83051
132.52449 80.800491 364.73132
134.19626 79.854904 364.86014
131.90544 80.870193 364.66736
130.3239 81.501221 363.57361
130.29149 81.572723 363.17703
130.1664 81.507317 362.20267
137.65875 79.680191 359.12466
137.54001 79.766525 358.98593
137.73605 79.927071 358.9404
136.3911 80.263687 358.34805
137.32887 80.247009 358.51022
135.29271 80.436943 358.16605
136.03532 80.414307 358.17789
135.16013 80.550308 358.03357
135.02034 80.645714 357.9028
134.99461 80.652443 357.88614
135.00182 80.825912 357.6731
135.02615 81.06179 357.31369
135.28377 81.154251 357.25568
134.87004 81.593971 356.60324
135.57874 82.029854 356.14417
135.36038 82.170456 355.85944
136.77556 82.415009 355.87036
135.91052 82.538864 355.35077
137.88731 81.150764 365.96884
138.0634 81.198311 366.12775
136.75407 80.536278 365.48929
136.68806 80.944267 364.7207
137.20967 81.182121 364.66119
138.16301 81.447014 364.62872
136.26514 80.860725 364.20328
138.42924 79.280373 359.86929
139.44389 79.524757 359.81693
138.51312 79.786316 359.32202
139.24258 79.80291 359.43738
139.90085 79.688995 359.66428
138.26445 79.513741 359.50992
139.15912 80.013901 359.20401
139.66559 79.766281 359.47931
137.92406 79.930382 358.99536
140.65192 79.900993 359.67474
136.46233 80.006081 358.52267
136.9745 80.054512 358.59784
139.43369 81.320206 357.64377
140.03966 81.20562 357.73325
140.61005 80.900047 358.00021
141.55692 80.811569 357.99268
139.91345 81.344193 357.58423
140.30878 81.42746 357.39941
141.52251 81.341499 357.1644
141.3829 81.442261 357.02744
141.40645 81.168022 357.43143
137.1209 82.067017 356.3699
140.67006 81.90274 356.61237
141.40778 81.788414 356.435
141.73473 81.654427 356.58099
136.951 82.591133 355.65277
139.91052 82.213814 356.16431
139.76439 82.323349 356.0285
140.28864 82.280556 355.96021
141.63864 81.860451 356.22031
139.95712 82.45372 355.80099
140.33159 82.132698 356.2066
141.48547 82.067429 355.83563
138.36392 82.717873 355.49377
140.12801 82.546829 355.59705
140.3266 82.628334 355.37497
140.46425 82.527832 355.47415
141.65204 82.201782 355.62936
138.20122 82.959473 355.11777
140.82262 82.562843 355.16656
141.19864 82.369141 355.3147
138.57951 83.06781 354.93414
138.78004 83.045479 354.95859
139.22249 83.056618 354.75958
140.47939 82.942207 354.65445
140.05582 83.16394 354.37711
140.88341 82.79245 354.67877
140.7507 82.99189 354.44974
132.46056 80.380142 365.41635
132.90477 80.023666 365.62326
132.69907 80.128601 365.57141
132.87146 80.403793 365.15454
132.71544 80.72654 364.75677
133.14624 80.368912 364.95874
133.25159 80.431252 364.72787
132.70335 80.782097 364.44614
133.02711 80.618584 364.55212
133.94986 79.968445 364.26212
134.20406 79.757767 364.14099
133.62553 80.427612 363.99612
133.87186 80.208931 364.01529
134.06058 80.0905 363.74774
138.34331 81.494812 365.75937
138.4381 81.579651 365.53192
137.90504 81.355179 364.33777
137.77808 81.229584 363.64871
135.09467 76.96804 359.93787
134.47047 78.475838 359.64081
134.28857 78.616867 359.62119
133.99962 78.88929 359.44266
139.96991 81.207687 362.32944
137.67491 79.223434 359.61987
137.90439 79.346863 359.60385
136.6946 79.465149 358.84677
135.91974 79.955612 358.55099
136.68764 79.808121 358.67899
134.83571 81.371307 356.82513
140.55469 82.638641 355.22708
140.79341 82.690567 354.90067
134.83234 80.709282 357.65359
133.86598 80.309891 363.4917
134.34273 79.871269 363.36508
134.49432 79.645851 363.32199
140.939 80.842445 364.41864
141.20563 81.171448 365.24802
139.09952 81.345024 361.95035
136.81467 80.997681 363.3569
135.19995 76.768387 359.45261
131.79597 81.244011 361.54718
131.94257 81.081894 360.98987
131.88559 81.239944 361.72665
132.5524 80.696396 360.23367
133.27141 80.227516 360.61053
132.95471 80.560921 361.24829
132.82025 80.751686 361.75726
133.32251 80.377678 361.92538
132.82219 80.816429 362.79449
133.06 80.661873 362.38593
133.23425 80.519638 362.23132
133.64708 79.898621 361.21475
133.40227 80.35614 362.11398
133.27827 80.570068 362.60132
133.7915 79.675964 361.17911
133.56335 80.178299 362.01346
133.93015 79.426071 361.18668
133.86749 79.631866 361.41003
133.7957 79.820045 361.65475
133.72736 79.990356 361.93939
134.23988 79.181183 361.50565
133.90416 79.987251 362.26819
133.963 80.082085 362.56149
134.55827 77.412209 360.43961
139.19356 81.316231 362.53375
139.56367 81.207367 362.65695
139.38701 81.286308 363.32843
140.24838 80.965088 363.65561
140.16051 81.101761 363.97324
140.30455 81.186447 364.43958
131.10201 80.133743 366.12271
130.01422 80.476204 365.74423
130.56155 80.565201 365.57648
130.97983 80.514702 365.64557
130.44133 80.661385 365.44406
131.18858 80.861794 365.07675
131.63127 80.760445 365.13345
135.34262 80.709625 357.85397
135.80667 80.745354 357.80054
135.59209 81.059433 357.42233
136.36464 81.46949 357.10632
136.29945 81.651115 356.85785
136.06802 81.820877 356.58508
136.52092 81.879532 356.53839
136.06725 82.208298 355.9931
136.48607 82.305588 355.94501
137.31705 80.970581 365.43933
137.31224 81.079208 365.19199
138.92825 80.344215 358.83786
138.78862 80.44857 358.69998
139.27692 80.483711 358.65622
138.37411 80.60524 358.40121
140.93565 80.351212 358.60464
138.78946 80.990677 358.01141
140.8623 80.542915 358.36374
137.62296 81.163116 357.60892
138.77341 81.279922 357.66669
140.90863 80.922523 357.91568
137.67686 81.425171 357.39349
139.08997 81.448082 357.48111
138.61183 81.784462 356.94089
139.2263 81.723244 357.02707
138.95276 81.920189 356.75211
139.38594 81.856255 356.81058
140.3932 81.764679 356.94861
140.70885 81.762573 356.85944
137.97681 82.277306 356.28564
137.21538 82.287003 356.16541
139.50427 82.145714 356.3533
138.87746 82.598366 355.67798
138.66333 82.761719 355.42563
139.6562 82.976654 354.80914
132.95534 80.513802 364.93079
138.39691 81.42173 366.2002
136.77026 81.059731 364.49881
137.50684 81.254089 363.98566
