# .PCD v0.7 - Point Cloud Data file format
VERSION 0.7
FIELDS x y z
SIZE 4 4 4
TYPE F F F
COUNT 1 1 1
WIDTH 1612
HEIGHT 1
VIEWPOINT 0 0 0 1 0 0 0
POINTS 1612
DATA ascii
138.52248 81.50528 364.0545
138.3112 81.414642 363.70636
138.16272 81.414864 363.97324
138.34468 81.467659 364.01663
138.12679 81.358681 363.66019
138.20596 81.368805 363.5322
138.09946 81.333954 363.35941
138.00272 81.313347 363.19669
139.7189 82.022324 366.55115
139.70007 81.988564 366.25851
139.45421 81.971207 366.36096
139.55272 82.004295 366.52692
139.59509 81.950287 366.08514
139.30826 81.8722 365.86887
139.23999 81.884537 366.0097
139.20882 81.834641 365.70209
138.8241 81.723015 365.32062
138.93149 81.769791 365.49695
139.03561 81.810181 365.66931
138.78392 81.649696 365.00308
138.57123 81.565514 364.65399
138.6501 81.572815 364.52563
138.55431 81.547691 364.36246
138.45334 81.513474 364.19382
137.97821 81.355202 363.92654
138.01675 81.306946 363.48138
137.91113 81.268127 363.30872
137.81509 81.239922 363.14392
139.52512 81.963211 366.22366
139.34785 81.929207 366.18631
138.60312 81.610291 364.96155
138.65221 81.688019 365.28946
138.47787 81.540924 364.49323
138.37619 81.509087 364.32394
138.27019 81.466202 364.14969
137.86511 81.293266 363.74393
137.9377 81.294167 363.60898
137.82652 81.237411 363.42859
137.71645 81.190384 363.25113
139.65021 82.034233 366.69122
139.14148 81.847534 365.8436
138.53577 81.625587 365.10321
138.49376 81.561707 364.78378
138.24487 81.515213 364.8811
138.21364 81.482094 364.57526
138.13855 81.471123 364.70642
138.0867 81.408546 364.1041
137.85104 81.376144 364.48923
137.95674 81.41526 364.66229
137.8172 81.34201 364.18076
137.66759 81.328506 364.44498
137.74962 81.226959 363.55847
137.63919 81.167999 363.37817
139.57339 82.040215 366.82373
139.47937 82.008667 366.66208
139.3775 81.97171 366.4924
139.2709 81.930412 366.31772
139.16443 81.887352 366.14301
139.06329 81.84922 365.97351
138.96353 81.815041 365.80576
138.86101 81.779068 365.63535
138.75653 81.737663 365.46255
138.34982 81.568069 365.05591
137.71593 81.298859 364.01068
137.67256 81.230293 363.68954
137.4928 81.185165 363.64877
137.53754 81.258751 363.97183
137.56236 81.167557 363.50958
137.4429 81.105408 363.32028
139.49803 82.029152 366.957
139.39796 81.999809 366.7894
139.29622 81.959702 366.61896
139.19286 81.918434 366.44702
139.08627 81.876129 366.27243
138.98657 81.837936 366.1037
138.88188 81.801384 365.93188
138.78015 81.767319 365.76245
138.67778 81.730934 365.59189
138.57675 81.688469 365.42148
138.46512 81.631569 365.24072
137.42946 81.209175 363.7951
134.55124 78.500183 359.14871
134.48114 78.548447 359.02271
139.30688 81.967026 366.90674
139.20808 81.927147 366.73727
139.10695 81.884491 366.56586
138.99927 81.842201 366.39136
138.89716 81.804245 366.22052
138.78868 81.764648 366.04623
138.69289 81.731789 365.88022
138.59489 81.698746 365.71289
138.48526 81.65921 365.53796
138.38571 81.615211 365.36737
138.27443 81.556595 365.18652
138.15474 81.495636 364.99957
138.05652 81.453209 364.83063
137.64178 81.300453 364.14432
137.56566 81.297371 364.27576
134.4872 78.529259 359.2966
134.43257 78.607346 359.18121
134.36346 78.655754 359.05441
134.17619 78.663353 358.45767
138.59326 81.670876 365.98438
138.48956 81.635307 365.81381
138.3837 81.60157 365.64297
138.29132 81.570381 365.478
138.18497 81.522743 365.30261
138.06764 81.466766 365.11874
137.96283 81.424088 364.94537
137.86308 81.390244 364.77716
137.76582 81.35923 364.61121
137.46451 81.264374 364.10693
137.36066 81.225533 363.93478
137.25455 81.182289 363.76004
134.45972 78.431747 359.53497
134.42273 78.535347 359.43341
134.36986 78.634888 359.32709
134.31435 78.710007 359.20932
134.16119 78.775253 358.94638
134.24481 78.759026 359.08304
138.37572 81.553772 365.9064
138.28107 81.529099 365.74249
138.18736 81.505493 365.5791
138.08806 81.472198 365.41077
137.98535 81.411507 365.51367
137.97794 81.428123 365.23422
137.87476 81.391365 365.06296
137.78368 81.365112 364.90195
137.67851 81.336708 364.73111
137.57898 81.310532 364.56473
137.49031 81.288177 364.40677
137.38753 81.261894 364.23776
137.28659 81.2323 364.06897
137.18604 81.198189 363.90042
137.08231 81.157211 363.72849
136.97389 81.103867 363.55124
136.86122 81.031296 363.3688
134.29645 78.62941 359.45963
134.2469 78.722488 359.34897
134.18997 78.796074 359.22754
134.12151 78.847885 359.10162
138.17336 81.448868 365.83737
138.08006 81.432899 365.67667
137.88359 81.380928 365.34491
137.78825 81.353821 365.18048
137.69983 81.333809 365.02185
137.59601 81.310165 364.85379
137.49756 81.28775 364.689
137.40323 81.268288 364.52731
137.31015 81.250732 364.36703
137.21103 81.230042 364.20126
137.11195 81.203987 364.03482
137.01199 81.168144 363.86688
136.9007 81.114151 363.68652
136.79016 81.044724 363.50558
136.66682 80.957932 363.3111
136.47122 80.894409 363.25266
134.16316 78.702217 359.47763
134.11386 78.794106 359.36398
133.9924 78.925774 359.11633
134.05647 78.866814 359.24225
133.9174 78.960342 358.98441
133.83304 78.968239 358.83456
138.06494 81.358536 365.92844
137.98193 81.357872 365.77591
137.8838 81.344521 365.61517
137.78799 81.325089 365.45255
137.68945 81.303291 365.2883
137.60017 81.288269 365.12991
137.5107 81.273384 364.97162
137.40802 81.252724 364.80536
137.32008 81.238129 364.64841
137.12885 81.213959 364.3269
137.2265 81.225838 364.48895
137.03731 81.198456 364.16782
136.93672 81.168785 363.99969
136.83151 81.118866 363.82541
136.70909 81.043266 363.63278
136.59309 80.965256 363.44553
133.91875 78.931084 359.25534
133.8553 78.990753 359.12964
133.78165 79.025337 358.99139
133.69556 79.028748 358.84341
137.8634 81.25666 365.86017
137.77719 81.260651 365.70892
137.50151 81.226395 365.23376
137.58914 81.236221 365.39047
137.40985 81.215515 365.07571
137.31267 81.200356 364.9144
137.13055 81.181587 364.59946
137.22295 81.188644 364.75668
137.03654 81.178612 364.44257
136.95152 81.174408 364.28912
136.85699 81.155106 364.12717
136.75404 81.111931 363.95517
136.63947 81.042801 363.77014
136.4035 80.907234 363.39383
136.43938 80.960823 363.70737
136.33267 80.914558 363.5314
133.7753 78.978539 359.26016
133.71187 79.0382 359.13437
133.6375 79.071159 358.99478
133.54927 79.069984 358.84
137.29729 81.131516 365.16797
137.21059 81.127159 365.0134
137.11784 81.119156 364.85605
137.02548 81.116714 364.70102
136.85698 81.128502 364.40057
136.94357 81.124115 364.55209
136.77046 81.120758 364.24542
136.67261 81.088882 364.07886
136.56058 81.029831 363.89764
133.56383 79.070206 359.13165
133.48868 79.102425 358.99234
137.18369 81.024994 365.25055
137.09805 81.031029 365.10062
137.00845 81.032692 364.94809
136.91649 81.035805 364.79565
136.76157 81.063576 364.50461
136.83591 81.049042 364.64941
136.6754 81.063324 364.35211
136.57671 81.040855 364.18777
136.47266 80.99884 364.0152
136.36093 80.94841 363.83588
136.25632 80.914406 363.66339
133.47325 79.031944 359.24628
133.41054 79.094627 359.12259
133.33379 79.125381 358.98044
137.0462 80.888741 365.31882
136.96944 80.911476 365.17661
136.8945 80.932114 365.03326
136.8084 80.945877 364.88654
136.61942 80.872299 364.83182
133.17793 79.136116 358.96896
136.85028 80.789948 365.2511
136.77242 80.819077 365.1123
136.69749 80.847855 364.97314
136.73233 80.665665 365.32349
136.64966 80.700516 365.1886
136.57973 80.740761 365.05484
136.50522 80.773743 364.91772
136.39494 80.67424 365.00287
133.81593 79.67704 361.27411
133.78551 79.781776 361.45676
133.75195 79.881889 361.63861
133.68181 79.919235 361.50119
133.64209 80.004799 361.67572
133.32776 80.282852 361.33517
133.3468 80.284836 361.61661
133.52962 80.12384 361.7124
133.2596 80.324249 361.2001
133.18591 80.353348 361.0575
133.60461 80.245956 362.3446
133.52451 80.264801 362.20148
133.44655 80.289886 362.06195
133.41467 80.240295 361.74954
133.27911 80.337898 361.4913
133.21068 80.385178 361.36163
132.91383 80.511772 360.80859
132.74255 80.67247 361.00058
133.01636 80.517563 361.25113
132.79118 80.609688 360.83734
132.84593 80.678398 361.44183
132.77411 80.600693 360.54758
133.37073 80.319321 361.92352
133.29942 80.352234 361.78238
133.22954 80.395355 361.65054
133.16043 80.441254 361.52002
132.71844 80.645866 360.70206
133.81818 80.304077 362.96161
133.40549 80.367683 362.22983
133.32932 80.395775 362.09094
133.25395 80.42852 361.95578
132.53954 80.785439 360.88205
132.49301 80.852882 361.04691
132.66687 80.700546 360.86029
132.5231 80.892677 361.3504
132.44658 80.919235 361.20993
133.76613 80.358391 363.1214
133.28441 80.467453 362.25824
133.1595 80.561417 362.28674
132.45747 80.797798 360.72919
132.4097 80.863113 360.89764
132.36475 80.938156 361.07355
132.31982 80.858368 360.73874
132.17944 80.911308 360.74829
131.98763 80.900345 360.16327
132.27565 80.932175 360.91574
132.00504 80.912926 360.4433
131.78374 80.977905 360.31119
131.72215 81.011101 360.45816
132.39529 80.976379 361.37042
132.3166 80.998672 361.22858
132.23163 81.006042 361.08838
132.13667 80.986618 360.92456
131.94601 80.950546 360.59454
131.89397 81.005165 360.75333
131.9912 81.028702 360.9191
132.33936 81.022667 361.52603
132.26091 81.045418 361.38577
132.1792 81.059509 361.24118
132.09094 81.055267 361.09189
131.7529 81.055481 360.76108
131.66531 81.055405 360.60809
131.63947 81.02449 360.30585
132.28123 81.062508 361.6777
132.20204 81.083733 361.53485
132.12024 81.098534 361.38925
132.03448 81.103119 361.23941
131.82999 81.181732 361.38828
131.64917 81.164871 361.08038
131.59329 81.212456 361.23141
131.70184 81.112633 360.92032
131.58096 81.062805 360.46024
131.49915 81.077141 360.31107
132.14389 81.123169 361.68497
132.06142 81.136375 361.54001
132.00494 81.17952 361.69376
131.97583 81.141991 361.38977
131.91969 81.185303 361.54611
131.44197 81.119255 360.46289
131.36177 81.13723 360.32199
131.14932 81.22818 360.19617
131.55951 81.160522 360.92383
131.19586 81.276382 360.78897
131.27928 81.26741 360.93292
131.09189 81.267609 360.33856
131.94849 81.223511 361.84833
131.72395 81.28363 361.70963
131.3956 81.307793 361.38885
131.5047 81.209015 361.07779
131.22224 81.308121 361.09122
131.30756 81.302986 361.24124
131.88928 81.260674 362.00201
131.13695 81.315605 360.93753
131.0517 81.32354 360.78479
131.16081 81.339798 361.23853
131.07576 81.345451 361.08865
130.99161 81.351593 360.94147
131.00702 81.363625 361.22693
130.92432 81.369934 361.08093
130.84012 81.374886 360.9332
130.93842 81.3741 361.36771
130.76944 81.388145 361.06912
132.29739 80.756683 364.68198
132.23639 80.816895 364.55841
132.17143 80.872581 364.43222
132.10454 80.925491 364.30334
132.03917 80.9786 364.17615
132.14638 80.784019 364.67554
132.08702 80.847313 364.55316
132.02217 80.90551 364.42755
131.95657 80.959991 364.3002
131.89246 81.016281 364.17453
131.96022 80.694473 364.89886
131.93588 80.873329 364.54584
131.8098 80.721107 364.89185
131.78397 80.89782 364.53781
131.80852 80.992897 364.29681
131.87224 80.933411 364.4216
131.74736 81.056114 364.17438
131.60342 81.098892 364.17569
131.63138 80.924561 364.53076
131.54167 80.885178 364.64505
131.72093 80.962128 364.41537
131.5184 81.073822 364.29642
131.57294 80.997185 364.41315
130.82094 81.540962 362.70343
130.7341 81.543945 362.55118
130.64215 81.536842 362.3927
130.55295 81.526817 362.23822
130.46439 81.518829 362.08475
130.37451 81.518135 361.92819
131.66037 80.750473 364.88638
130.74573 81.538658 362.83603
130.65958 81.54586 362.68475
130.56917 81.542229 362.52835
130.48447 81.533524 362.37888
130.39062 81.523567 362.21832
130.30463 81.521751 362.06726
131.48288 80.958992 364.52795
131.42966 81.040062 364.41382
131.3745 81.11467 364.29691
130.66899 81.533066 362.96661
130.50815 81.536827 362.94836
130.49496 81.540215 362.66214
130.34218 81.528152 362.9241
130.40833 81.532417 362.50983
130.24588 81.51915 362.48917
131.39345 80.922813 364.64346
131.28636 81.082687 364.414
130.59097 81.523865 363.09573
130.2542 81.517082 362.76968
130.43333 81.528526 363.08078
130.35179 81.515289 363.20599
130.19348 81.515182 363.18973
130.07642 81.329346 364.0885
129.98433 81.285942 364.20163
129.92993 81.368904 364.08749
129.83606 81.321854 364.19974
129.72827 81.246048 364.29797
138.40135 81.08506 367.08691
138.47681 81.221397 367.05005
138.54538 81.343513 366.99268
138.62267 81.456055 366.9281
138.27313 80.990051 366.97333
138.34244 81.117043 366.92261
138.41728 81.244057 366.87418
138.49123 81.360519 366.81207
138.56558 81.464287 366.73203
138.21449 81.022331 366.80957
138.29092 81.146591 366.759
138.36058 81.265305 366.69748
138.43707 81.378387 366.6326
138.08577 80.939186 366.71109
138.15746 81.054482 366.64676
138.23175 81.175911 366.59158
138.02457 80.972641 366.54764
137.96686 81.013046 366.39508
138.28404 80.925743 357.98511
137.3419 79.315498 359.26743
138.51671 81.013344 357.89404
138.36653 81.010521 357.88531
138.13417 80.922783 357.97549
138.2149 81.00943 357.88052
138.2975 81.094635 357.78156
138.14615 81.097633 357.77957
137.99373 81.096664 357.77515
137.91426 81.003548 357.86331
138.23737 81.35363 357.48526
138.15425 81.271271 357.58673
138.07472 81.186348 357.68243
137.75665 80.810799 358.03207
137.83533 80.90802 357.94803
137.76662 80.98867 357.84064
137.54192 80.869179 357.89307
137.6209 80.965935 357.80975
137.84515 81.086739 357.75821
137.92432 81.182175 357.67233
138.00406 81.271683 357.58173
138.08559 81.354942 357.48291
138.1691 81.433342 357.37634
137.77682 81.166489 357.64969
137.55286 81.043121 357.69754
137.6302 81.14537 357.61957
137.85551 81.263229 357.56485
137.93619 81.352013 357.47165
138.01903 81.43264 357.36804
137.95171 81.507088 357.25403
137.39513 80.850838 357.86716
137.31512 80.760216 357.95776
137.47482 80.944031 357.77972
137.63905 81.330154 357.43668
137.561 81.230118 357.51718
137.78737 81.34211 357.45529
137.71889 81.422485 357.34732
137.24644 80.843025 357.85217
137.16507 80.753975 357.94626
137.32646 80.93174 357.75998
137.40561 81.026657 357.67386
137.48347 81.12751 357.59412
137.02345 80.937675 357.75586
137.17569 80.931305 357.75406
137.25549 81.022011 357.66324
137.33472 81.119194 357.57965
137.3403 81.31424 357.40833
137.49014 81.319984 357.42014
137.26172 81.217384 357.49203
137.42 81.408218 357.3208
137.64984 81.503899 357.24118
137.50044 81.498436 357.22824
137.58142 81.585175 357.13303
137.10419 81.026382 357.66281
136.95146 81.032356 357.66452
137.18289 81.120323 357.57574
137.27031 81.403839 357.30975
136.80038 81.035316 357.66217
137.10953 81.220093 357.49008
136.95815 81.222809 357.48798
137.18997 81.313477 357.40167
137.43217 81.577469 357.11816
137.20169 81.483429 357.20108
137.28354 81.566261 357.10059
137.51344 81.661591 357.02158
137.59526 81.744492 356.92203
137.67769 81.827209 356.81992
136.87915 81.129051 357.57507
137.03841 81.313393 357.39697
137.05267 81.472099 357.18585
136.97026 81.394699 357.28821
137.36537 81.648651 357.00146
137.44724 81.731598 356.90155
137.61031 81.900505 356.70557
137.5289 81.815887 356.80087
136.72845 81.128166 357.56866
136.80797 81.221939 357.48108
136.88812 81.310753 357.3887
137.13586 81.549797 357.08112
137.21852 81.630348 356.97617
137.30099 81.711113 356.87506
137.38255 81.794937 356.7746
137.46335 81.882614 356.6799
136.5787 81.123566 357.55783
136.65794 81.216576 357.47
136.73878 81.304878 357.3757
136.90477 81.4608 357.16333
136.67204 81.376175 357.25797
136.75607 81.448189 357.14722
136.98921 81.531586 357.05563
137.00931 81.664497 356.80844
136.92595 81.588844 356.91373
137.17203 81.834885 356.61417
137.09158 81.74633 356.70963
137.25087 81.929497 356.52701
137.39661 81.953766 356.56049
136.42914 81.115395 357.54367
136.50879 81.208664 357.45547
136.4407 81.286575 357.34467
136.37395 81.359718 357.22757
136.84158 81.51844 357.02759
137.18301 82.008545 356.41867
136.28052 81.104584 357.52612
136.36002 81.198441 357.43826
136.45702 81.438133 357.12231
136.60648 81.441544 357.13434
136.77777 81.578888 356.89816
136.69223 81.511551 357.01642
136.86201 81.650673 356.78568
136.94417 81.729424 356.68399
137.02522 81.815826 356.58905
137.10478 81.909462 356.49936
136.14375 81.263901 357.30835
136.22501 81.349854 357.21167
136.62524 81.580521 356.89795
136.47289 81.586143 356.89944
136.3902 81.511574 357.00635
136.71072 81.649231 356.78116
136.7942 81.723175 356.672
136.8759 81.805511 356.57272
136.95654 81.895561 356.48029
136.23976 81.506683 356.99658
136.00871 81.415985 357.08191
136.40472 81.663284 356.7883
136.72575 81.80397 356.56406
136.80682 81.887985 356.46698
136.6568 81.885666 356.45776
136.32196 81.587326 356.89487
135.70993 81.400795 357.0549
136.25427 81.664062 356.78247
141.96591 80.513412 357.7038
141.91924 80.613251 357.58484
141.33922 80.593185 358.20395
141.44066 80.649765 358.09256
141.77562 80.661507 357.58328
141.8681 80.705887 357.46689
141.38936 80.739639 357.97446
141.29085 80.680481 358.082
141.48949 80.79538 357.86481
141.57674 80.860023 357.7417
141.65881 80.742462 357.60062
141.73792 80.796112 357.4794
141.2412 80.760025 357.95694
141.43721 80.884926 357.74573
141.33876 80.821785 357.85172
141.71661 80.921577 357.38065
141.53935 80.940063 357.63019
141.3886 80.969856 357.62451
141.6259 81.007126 357.50949
141.09431 80.7864 357.94357
141.19151 80.84243 357.83569
140.94836 80.820709 357.93646
141.28986 80.904556 357.72873
141.48772 81.033409 357.51852
141.59052 81.098564 357.40222
141.44054 81.127586 357.39932
140.23698 80.312241 358.67865
140.09331 80.355278 358.67117
139.991 80.279968 358.77823
141.24278 80.996445 357.60895
141.34109 81.058739 357.50458
139.84518 80.313026 358.76797
139.94789 80.391106 358.66434
136.80058 80.668427 362.54211
132.68953 80.887337 363.61096
132.62741 80.919594 363.47736
132.21481 81.066879 363.19678
132.27736 81.035606 363.33069
132.43309 80.982994 363.06638
132.29279 81.042549 363.06561
132.13622 81.087006 363.32642
131.93333 81.181793 363.19342
131.85529 81.1987 363.3212
131.71326 81.249863 363.31747
132.01297 81.15889 363.06137
131.63092 81.256348 363.44363
131.79311 81.236443 363.19028
131.87152 81.214607 363.06003
131.74243 81.258881 362.78641
131.66551 81.286705 362.91797
131.48582 81.294952 363.43741
131.34059 81.331764 363.42996
131.56984 81.294731 363.31216
131.651 81.285316 363.18573
131.73019 81.265305 363.05539
131.42531 81.335335 363.30603
131.13539 81.411049 363.29117
131.44505 81.360046 363.04526
131.3822 81.391335 362.91193
131.30179 81.404442 363.03897
131.19559 81.369469 363.42258
131.60179 81.311348 362.78186
129.92555 80.452713 365.61011
130.00641 80.533417 365.51233
130.15625 80.524864 365.51428
130.01808 80.691597 365.30591
130.09853 80.757469 365.19733
130.02892 80.823418 365.08105
129.93733 80.618111 365.40945
129.94861 80.764862 365.19449
129.87854 80.825691 365.07404
129.86801 80.697357 365.30197
129.79854 80.76355 365.18576
129.85643 80.53669 365.50656
129.78738 80.61834 365.40118
129.71873 80.689926 365.28912
133.52571 80.451775 363.90384
133.66202 80.286621 364.1149
133.59714 80.372963 364.01025
133.61006 80.287033 364.25577
133.54646 80.375496 364.15216
133.47762 80.45742 364.04642
133.55124 80.278992 364.39447
133.48933 80.36956 364.29129
133.42137 80.453041 364.18622
133.35048 80.531975 364.07962
133.48659 80.263977 364.52997
133.42609 80.35675 364.42834
133.35831 80.440292 364.32324
133.28847 80.520309 364.2171
133.35954 80.337952 364.5625
133.2887 80.315186 364.69614
133.22165 80.400391 364.59216
134.06467 69.908737 358.20901
134.05904 70.007141 358.33389
134.04373 69.843483 358.33887
134.25726 71.802345 358.53668
130.73586 81.44384 363.63516
130.81371 81.468353 363.52509
130.60596 81.528847 363.34872
130.48674 81.393379 363.87607
130.67079 81.336189 363.99646
130.94766 81.31929 363.96454
130.96033 81.401001 363.69034
130.81885 81.264999 364.18369
131.00908 81.288429 364.05475
130.93732 81.553658 362.90811
130.98468 81.525375 363.11227
131.10204 81.515717 363.01776
131.16356 81.509537 362.92175
131.06897 81.539146 362.77185
131.15993 81.466965 363.27869
131.19801 81.475929 363.1694
134.66222 76.055214 359.62741
134.74217 76.186844 359.60162
134.74362 76.001236 359.51608
134.64607 78.39006 359.25192
134.5923 78.414894 359.04633
134.51353 78.479767 359.29385
134.43713 78.528313 359.06552
134.67523 78.391335 359.42917
134.76494 78.310966 359.19104
134.84372 78.28434 359.41629
135.46803 80.681618 363.72589
135.53877 80.581505 364.02151
135.6163 80.705223 363.79398
135.58191 80.687355 363.66089
135.66487 80.648445 364.05679
135.54366 80.702324 363.43561
135.66977 80.767006 363.49875
135.69493 80.796944 363.36032
135.57741 80.713486 363.39368
135.73633 80.777107 363.66843
135.70662 80.647202 364.22327
135.80077 80.744339 364.0061
135.74648 80.62471 364.43649
135.84366 80.723862 364.22711
135.8847 80.680206 364.4545
135.53409 80.630333 362.66956
135.54207 80.720573 362.78873
135.66139 80.711189 362.70038
135.84834 80.714401 362.61938
135.7784 80.601105 362.49625
135.67316 80.784531 362.83386
135.58009 80.833565 363.08841
135.69629 80.832924 362.99149
135.72379 80.855255 363.15482
135.93024 80.63887 364.65128
136.05519 80.705605 364.53116
136.20567 80.732979 364.59167
136.09067 80.633255 364.7796
135.79277 80.7743 362.74255
135.93127 80.692116 362.55566
135.89977 80.579391 362.4151
135.88618 80.515846 362.27496
136.015 80.584457 362.30914
136.00514 80.506599 362.18265
135.97725 80.081032 361.55566
135.96616 80.198334 361.66656
136.10556 80.127121 361.61792
136.10786 79.990379 361.54742
135.97865 80.250481 361.80057
136.10963 80.227303 361.73053
136.02332 80.215599 362.02319
136.12361 80.280983 361.86868
136.01221 80.395767 362.0878
136.13728 80.361267 362.00665
136.13029 80.477875 362.10519
136.13599 80.568756 362.22339
136.10547 80.879585 363.2269
136.28395 80.878586 363.28497
136.25423 80.858681 363.11633
136.17654 80.888512 363.39453
136.3166 80.8965 363.46048
136.25162 80.031891 361.59219
136.25011 80.158218 361.67862
136.32829 80.353882 361.93832
136.2538 80.254677 361.79514
136.68268 80.939644 363.31335
136.66299 80.890953 363.16458
136.56996 80.932785 363.41879
136.52437 80.851631 363.10742
136.43236 80.894905 363.36249
136.35307 80.916237 363.64737
136.45729 80.925468 363.52274
136.48203 80.957588 363.67776
136.24893 79.601158 361.08774
136.0994 79.546654 361.16653
136.36497 79.721306 361.15585
136.40356 80.192024 361.73257
136.3208 80.80616 362.883
136.37823 80.834969 363.03497
136.50391 80.811867 362.95544
136.59122 80.975769 363.57034
136.49931 80.985451 363.87311
136.60538 81.03244 363.82568
136.61298 81.018425 363.7225
136.48495 79.819641 361.22263
136.48363 79.713882 361.06146
136.45415 80.731163 362.64166
136.43759 80.773094 362.78784
136.60423 80.746384 362.71851
136.5829 80.693443 362.57007
136.62665 80.791924 362.87167
136.72211 81.036827 363.61264
136.70244 80.988266 363.46323
136.61665 79.77272 361.10394
136.63379 79.652451 361.0101
136.61772 79.886833 361.22537
136.72636 80.718712 362.63614
136.74709 80.77375 362.78473
136.83372 81.04837 363.50574
136.85434 81.094635 363.65619
136.73637 79.875587 361.11993
136.73912 79.973404 361.23386
136.85063 80.732079 362.63718
136.88387 80.815407 362.83838
136.96803 81.099701 363.55304
136.94777 81.052536 363.40329
136.85054 79.976089 361.1326
136.72572 80.074585 361.3866
136.85381 80.076874 361.24554
136.8567 80.195305 361.37799
137.00279 80.805687 362.74756
137.01851 80.864418 362.88763
137.08536 81.094727 363.45816
137.10956 81.140831 363.62155
136.95129 80.189636 361.24448
136.96059 80.359581 361.31305
137.13631 80.858208 362.79468
137.10014 80.787796 362.6073
136.91504 80.683823 362.49872
137.23889 81.129723 363.53009
137.32651 81.064255 363.2822
136.96118 80.392441 361.47968
137.04523 80.527931 361.27771
137.06651 80.533852 361.57758
137.1433 80.671295 361.26389
137.24721 80.869858 362.68973
137.36981 81.113976 363.43918
137.06537 81.046104 363.30911
136.99858 80.441689 361.56506
137.37393 80.942741 362.72223
137.22864 80.821922 362.52173
137.35179 80.903564 362.56509
137.45242 80.949188 362.43378
137.24518 80.791328 362.35931
137.49969 81.10466 363.34784
137.44438 81.058105 363.18893
137.30624 81.017097 363.13223
137.17897 80.706116 361.41373
137.24094 80.780632 361.28351
137.18942 80.683578 361.65018
137.23053 80.709229 361.79639
137.28102 80.842773 361.40588
137.26602 80.730934 361.95444
137.38432 80.828415 361.97046
137.33978 80.817047 361.81271
137.30212 80.832253 361.61288
137.28099 80.752609 362.08115
137.15501 80.665222 362.13138
137.28496 80.787468 362.23547
137.41307 80.856766 362.12936
137.50397 80.913544 362.00259
137.53351 80.940369 362.1604
137.57463 81.036285 362.45676
137.58054 81.103584 363.24167
137.55276 81.077522 363.07791
137.42056 81.020798 363.03113
137.36137 80.904793 361.27316
137.38326 80.967346 361.40723
137.81522 81.20015 363.15573
137.71411 81.156647 363.28882
137.47372 81.025009 361.27322
137.46545 80.914757 361.16318
137.78125 81.192627 362.98004
137.65269 81.123611 362.94574
137.84622 81.214058 363.33405
137.57959 81.028465 361.16776
137.59258 81.141518 361.2713
137.94637 81.258553 363.20447
137.78094 81.2033 363.49084
138.0211 81.296501 363.59775
137.97925 81.269249 363.37994
138.08057 81.310333 363.25296
137.90443 81.274391 363.716
137.70299 81.134384 361.18149
137.71448 81.20916 361.30991
137.72179 81.066216 361.87128
137.62822 80.98896 362.04053
137.85403 81.122826 361.91751
137.80833 81.141464 361.74747
137.75468 81.062103 362.07208
137.78113 81.100143 362.21991
137.88826 81.133163 362.08917
137.80128 81.149658 362.367
137.91011 81.171822 362.24924
137.92999 81.217529 362.40491
138.04401 81.309982 363.07294
138.09998 81.315521 363.47659
137.83014 81.205833 361.216
137.83249 81.091507 361.108
137.94254 81.202301 361.76425
138.02756 81.270615 361.68399
138.0218 81.302727 361.5784
138.05276 81.228745 362.2576
138.06262 81.274872 362.45096
137.97787 81.290108 362.72058
138.00856 81.307007 362.89093
138.11227 81.342049 362.76691
138.08591 81.313164 362.60593
138.1447 81.353951 362.94183
138.18137 81.353523 363.12445
137.95299 81.187119 361.1311
137.96242 81.267624 361.26132
137.98627 81.301964 361.41946
137.85025 81.259399 361.3761
138.19884 81.320122 362.50012
138.17595 81.278519 362.327
138.25526 81.357925 362.64203
138.30211 81.386971 363.0358
138.08208 81.246262 361.17252
138.10051 81.312439 361.32135
138.13116 81.335045 361.49716
138.17909 81.302223 361.70563
138.22226 81.297386 361.22577
138.22215 81.199135 361.10669
138.22943 81.360725 361.34671
138.28461 81.336052 361.58261
138.39528 81.355629 361.46915
139.67465 81.58757 364.80396
139.48367 81.55349 364.483
139.53293 81.641747 364.92554
138.67696 81.641365 365.20911
138.73582 81.611404 364.99878
138.55368 81.570381 364.98285
139.04581 81.711456 365.2757
139.16408 81.702156 365.18353
139.13759 81.667206 365.02585
138.99257 81.643028 364.96014
138.88632 81.621292 364.91412
138.89566 81.686455 365.25262
138.76128 81.647499 365.15396
139.18983 81.738976 365.33997
139.28342 81.688377 365.0936
139.30818 81.726341 365.24814
139.33345 81.765884 365.40353
139.42999 81.709167 365.16208
139.40698 81.670547 365.00934
139.5558 81.684143 365.08194
140.33882 81.748627 365.62949
140.49551 81.73938 365.71802
140.51328 81.673759 365.58893
140.6347 81.669258 365.66681
140.65245 81.729805 365.80692
140.79115 81.659233 365.75626
140.66698 81.781311 365.94989
140.81172 81.728569 365.89105
140.69966 81.811195 366.05365
140.66451 81.047821 364.66428
140.70506 81.125351 364.85004
140.85457 81.011711 364.83051
140.88617 80.91922 364.71979
140.79187 80.952293 364.66833
140.70213 81.216194 365.01266
140.86885 81.081139 364.96112
140.88403 81.145996 365.09726
140.94604 81.668839 365.83237
140.81633 81.783318 366.02637
140.89893 81.806305 366.09058
140.97873 81.770721 365.97351
141.03781 81.04995 365.05936
140.84117 81.230827 365.20544
141.088 81.089165 365.22296
141.11667 81.824394 365.9783
141.08595 81.712456 365.8801
141.0313 81.559822 365.74991
141.19801 81.075348 365.133
141.15634 81.173592 365.25696
141.10306 81.462387 365.69064
141.23154 81.508041 365.74768
141.22583 81.638718 365.83487
141.37061 81.555801 365.79395
129.74757 81.369583 362.63849
129.8784 81.439926 362.60736
129.81169 81.363396 362.42059
129.93385 81.43634 362.40976
131.74741 80.655663 359.71182
131.78751 80.763084 359.83505
131.93098 80.685188 359.80823
134.02835 70.41111 358.26096
134.02287 70.558487 358.30939
134.18225 70.461479 358.29865
134.02831 70.692055 358.37003
134.17047 70.617462 358.32996
134.07158 70.81517 358.47345
134.18961 70.778023 358.39645
134.19597 70.926384 358.45041
134.03989 71.619881 358.56619
134.05991 71.727882 358.61621
134.16876 71.660385 358.58188
134.16342 71.821404 358.60889
134.31464 71.723251 358.59518
134.06161 72.31382 358.78622
134.08301 72.436882 358.89093
134.18602 72.398201 358.76678
134.17712 72.260712 358.70667
134.30086 71.582016 358.55252
134.29901 71.884132 358.61902
134.46887 71.777908 358.6178
134.15039 72.107292 358.64575
134.30232 72.186829 358.66666
134.29604 72.037415 358.64548
134.29546 72.388062 358.70102
134.18407 73.135353 358.94919
134.1991 73.278923 359.00302
134.30528 73.261345 358.8934
134.2162 73.402252 359.09351
134.31337 73.378159 358.94073
134.22783 73.552383 359.11313
134.32932 73.508171 359.00439
134.36424 73.617775 359.14999
134.45509 71.639481 358.57056
134.44191 71.497314 358.5351
134.46931 71.918747 358.65717
134.45445 72.087921 358.65033
134.39717 72.342896 358.64139
134.45209 72.24073 358.66922
134.4324 73.456139 358.92108
134.45622 73.581192 359.00531
134.45364 73.738426 359.00006
134.37199 74.2248 359.25626
134.3577 74.370728 359.28677
134.46959 74.312279 359.19839
134.36937 74.509262 359.33881
134.48372 74.455246 359.26999
134.5271 74.550774 359.42761
134.40948 75.235634 359.58646
134.49864 75.355713 359.48917
134.51648 75.155983 359.50668
134.58784 71.862503 358.60178
134.56534 72.052513 358.57455
134.61661 73.637222 359.02777
134.56575 73.879097 359.02533
134.58087 73.511101 358.95703
134.68605 73.820648 359.04669
134.60115 74.553452 359.20734
134.58324 74.413246 359.15228
134.49313 74.328354 359.19272
134.5379 74.669777 359.49863
134.60677 74.706573 359.23386
134.51756 74.886169 359.4093
134.60588 74.846458 359.28644
134.51505 75.020149 359.46387
134.60794 74.978859 359.35858
134.62569 75.107101 359.42844
134.62459 75.252357 359.45151
134.6073 75.448349 359.42432
134.52689 76.068535 359.71426
134.53986 76.183197 359.79572
134.66399 76.130989 359.73428
134.63284 76.009575 359.60895
134.6855 71.989288 358.51816
134.73636 71.748398 358.60254
134.70038 73.486115 358.99838
134.73967 73.549515 359.03729
134.74599 73.70063 359.06192
134.69765 74.65976 359.14423
134.71262 74.490791 359.12762
134.7002 74.354935 359.07431
134.72522 75.38459 359.3587
134.73587 75.21656 359.35373
134.62762 75.556778 359.54169
134.71883 75.529099 359.39365
134.83516 75.476463 359.3183
134.64035 75.681969 359.60498
134.72787 75.658249 359.46371
134.62979 75.877281 359.56885
134.73404 75.814339 359.48465
134.83624 75.917442 359.41437
134.59731 76.799477 359.70462
134.6785 76.942268 359.58029
134.72026 76.726753 359.64841
134.82581 71.871529 358.5011
134.86931 74.394981 359.12534
134.86406 74.547646 359.14664
134.70331 74.80117 359.18793
134.85739 74.704308 359.16858
134.71242 74.942085 359.23306
134.84843 74.862022 359.18802
134.73042 75.075096 359.29895
134.84544 75.012466 359.22925
134.84973 75.154732 359.28745
134.83984 76.063507 359.45599
134.74257 76.390793 359.66043
134.74051 76.547813 359.67004
134.84895 76.495361 359.58685
134.8485 76.369141 359.51648
134.8463 76.657288 359.59717
134.96582 76.596207 359.53033
134.7625 77.068245 359.47842
134.92288 76.945198 359.49936
134.95374 76.762085 359.53671
135.00317 74.454956 359.16501
134.97939 75.083443 359.2334
134.84589 75.312737 359.31445
134.98724 75.374283 359.30945
135.00418 75.218178 359.29697
134.84048 75.621445 359.35028
134.97551 75.538223 359.29962
134.83975 75.769112 359.38278
134.96321 75.699371 359.33255
134.94922 75.855881 359.32739
134.94884 76.009537 359.37015
134.95657 76.153564 359.40936
134.84615 76.220261 359.48773
134.95543 76.306633 359.439
134.96068 76.453148 359.48459
134.87021 77.159225 359.42822
135.21478 75.211464 359.47162
135.12959 75.729721 359.37488
135.04425 75.978088 359.24472
135.06197 77.007851 359.48547
135.0735 76.842346 359.49554
135.09288 76.084053 359.36075
135.26318 75.973427 359.39166
135.084 76.234795 359.39536
135.23082 76.141449 359.39566
135.07935 76.390762 359.42316
135.21635 76.306938 359.39554
135.20532 76.469238 359.41364
135.19308 76.929916 359.46643
135.2005 77.073586 359.51968
135.35432 76.36972 359.38562
135.33795 76.536438 359.39124
135.31903 77.014603 359.4415
135.35846 77.110657 359.61209
135.28979 77.299538 359.76205
135.276 77.422005 359.83121
135.35332 77.3964 359.66983
135.39107 77.204414 359.72809
135.46692 76.466187 359.35062
135.32394 76.713829 359.39447
135.44984 76.63179 359.34506
135.311 76.868393 359.40097
135.43103 76.804634 359.33463
135.42435 76.96962 359.35385
135.43036 77.122269 359.38281
135.42239 77.291969 359.36978
135.40451 77.427101 359.42087
135.57942 76.573677 359.2981
135.58362 76.994568 359.39764
135.51962 77.224693 359.2962
135.49208 77.401085 359.27261
135.48683 77.553879 359.30002
135.65118 77.174217 359.24829
135.61111 77.359024 359.18427
135.58687 77.656662 359.22974
136.53035 80.529625 362.23792
136.47586 80.44294 362.07693
136.26987 80.588699 362.25604
136.29152 80.513725 362.14371
136.42142 80.600334 362.32822
136.58118 80.618462 362.41266
136.64578 80.472107 362.16153
136.58492 80.37735 361.99496
136.70146 80.561012 362.32263
136.76152 80.662308 362.50595
136.69118 80.329292 361.89169
136.59637 80.237244 361.7634
136.75026 80.42482 362.0607
136.85745 80.604446 362.37375
136.80429 80.513298 362.21832
136.78137 80.310326 361.7612
136.62798 80.098946 361.52902
136.75325 80.201477 361.55499
136.85437 80.411743 361.9382
136.89432 80.483765 362.08292
136.94888 80.574844 362.24365
137.0298 80.528549 361.92178
136.95789 80.424637 361.70929
138.83934 81.728737 366.01929
138.96474 81.776817 366.22205
139.01212 81.79361 365.98917
138.91359 81.753281 365.72876
138.81247 81.723373 365.73901
139.16602 81.84066 366.03299
139.11234 81.832085 366.25214
138.32095 81.451378 364.237
138.51862 81.50071 364.30606
138.42267 81.457092 364.05228
138.55502 81.527283 364.67093
138.68431 81.535118 364.37949
138.81134 81.703568 365.45169
138.80742 81.71627 365.58618
138.97946 81.747963 365.53683
139.05777 81.732086 365.37531
139.07195 81.797379 365.78448
139.08791 81.821869 366.39752
139.2352 81.877136 366.59106
139.32799 81.882751 366.09879
139.26564 81.878578 366.29443
138.58717 81.496147 364.12372
138.67365 81.481758 363.9534
138.53766 81.451317 363.85434
138.29146 81.467369 364.53955
138.29741 81.49202 364.84811
138.79181 81.572998 364.66296
138.96068 81.60614 364.74316
138.72047 81.58065 364.83932
139.22455 81.766304 365.45078
139.30814 81.821457 365.67639
139.49289 81.918678 366.16949
139.43542 81.925667 366.38464
138.83919 81.506012 364.05411
138.75677 81.527977 364.20609
138.85658 81.567856 364.4697
139.23285 81.8377 365.84567
139.5152 81.954414 366.51282
139.6395 81.972656 366.49643
138.46863 81.409477 363.14655
138.40092 81.40403 362.89047
138.93417 81.554787 364.30621
139.035 81.595108 364.5722
139.21143 81.612396 364.67029
139.13383 81.632111 364.83295
139.56232 81.831497 365.61111
139.4771 81.857071 365.75732
138.21924 81.371025 362.80139
138.4619 81.392258 362.70999
138.36932 81.337654 362.46304
139.02397 81.529808 364.16882
139.20592 81.543991 364.27972
139.0898 81.47039 363.93988
139.397 81.623718 364.79028
139.31422 81.6558 364.93927
139.47762 81.76973 365.3833
139.65849 81.947517 366.24075
139.83534 81.972282 366.34073
139.91403 81.954742 366.18054
139.73633 81.935425 366.07925
138.59459 81.374161 362.56842
138.54317 81.347359 362.44528
138.6364 81.413078 362.80319
139.3063 81.498276 364.16983
139.22588 81.439819 363.9165
139.29224 81.586693 364.5166
139.65094 81.799034 365.47366
139.57027 81.736511 365.25491
140.00067 81.928932 366.03842
139.82016 81.912094 365.93045
138.99289 81.454521 363.79861
139.39243 81.551208 364.40295
139.62538 81.505356 364.45947
139.8114 81.533043 364.74304
139.74284 81.758987 365.34622
139.6712 81.69651 365.14413
139.91696 81.880203 365.80878
139.42465 81.455399 364.13403
139.51637 81.492889 364.31744
139.84465 81.711464 365.24252
139.78142 81.647415 365.0528
139.68413 81.646118 365.00427
140.0976 81.891884 365.91946
140.19299 81.971527 366.32932
140.2818 81.94265 366.21143
140.35742 82.054031 366.61868
140.19463 82.020256 366.5972
140.41772 82.115219 366.7861
139.96167 81.65535 365.1683
139.89444 81.588852 364.97253
140.28604 81.899559 366.04678
140.20506 81.84671 365.82211
140.52869 82.099777 366.69995
140.08978 81.588814 365.1163
140.03619 81.507835 364.89978
140.03622 81.724075 365.37241
140.12074 81.788231 365.59528
140.23659 81.731522 365.51767
140.15936 81.661133 365.31067
140.31676 81.794044 365.73593
140.39656 81.850006 365.95724
140.2235 81.514015 365.07819
140.14597 81.445015 364.87115
140.35623 81.663506 365.4549
140.28969 81.588539 365.26642
140.51112 81.794907 365.87769
140.3568 81.432869 365.04611
140.45683 81.291344 364.88245
140.42389 81.508911 365.2338
140.4827 81.587219 365.41
140.55603 81.422821 365.20667
140.59027 81.220673 364.89111
140.6707 81.329506 365.17172
140.61778 81.502274 365.38516
140.6792 81.583878 365.56036
140.7581 81.407722 365.3779
140.81187 81.49221 365.54297
140.90837 81.310516 365.38235
140.97737 81.397606 365.55753
140.99968 81.494331 365.6803
140.89049 81.587456 365.7175
141.05693 81.231026 365.36453
141.12961 81.324608 365.54175
141.20712 81.260201 365.4129
137.47514 82.818565 354.78998
137.61469 82.882042 354.80435
137.60553 82.744537 354.74329
137.7281 82.827202 354.72412
137.75404 82.932976 354.82224
137.86734 82.901428 354.74054
137.82874 82.788788 354.62234
137.80737 82.965897 354.90335
137.93102 82.983528 354.92938
137.95819 82.857086 354.60635
137.9912 82.971611 354.71768
138.07828 82.941185 354.59061
138.05832 82.814621 354.49997
138.12843 83.081596 354.7345
138.19661 83.031326 354.53329
138.18144 82.894875 354.47467
138.29881 82.973106 354.44611
138.30222 83.133171 354.44736
138.39575 83.090111 354.35596
129.94792 81.257469 360.87912
130.08339 81.320099 360.92996
130.09641 81.232124 360.82449
129.81642 81.409561 361.8996
129.90926 81.447792 361.72809
129.74771 81.40892 361.67987
130.23044 81.304367 360.86734
130.16623 81.362595 361.07764
130.35471 81.363693 360.93643
129.95921 81.415726 361.35349
130.05984 81.448242 361.44009
130.12849 81.411766 361.24072
130.23294 81.431892 361.26288
130.35146 81.418175 361.1427
130.01173 81.468636 361.66974
130.10109 81.481361 361.78391
130.03392 81.462784 362.11298
130.12737 81.491623 362.05862
129.90924 81.42057 362.04501
130.49858 81.026588 360.38885
130.61444 81.106491 360.44498
130.63828 80.996887 360.34537
130.74568 81.078339 360.39633
130.79063 80.975899 360.27618
130.51289 81.121384 360.48038
130.7354 81.197601 360.47995
130.6956 81.287445 360.59811
130.9014 81.077705 360.30371
130.8907 81.184052 360.40445
130.86057 81.273682 360.52179
130.65607 81.358467 360.76965
130.8082 81.35038 360.70035
130.8903 81.37281 360.85953
130.76053 81.398026 360.944
131.0459 81.168694 360.32651
131.08736 81.078453 360.1879
130.95886 81.323448 360.64536
131.19176 81.139137 360.27383
131.22272 81.057198 360.15311
131.05391 81.331482 360.80029
131.10492 81.282684 360.60818
130.94069 81.392433 361.21826
130.89044 81.392365 361.07428
130.68005 81.419914 361.11719
131.03226 81.393051 361.37997
130.61537 81.438446 361.32385
131.33496 81.091339 360.23657
131.36864 81.017868 360.11508
131.19563 81.279793 360.77173
131.14394 81.325859 360.96152
130.84723 81.425255 361.5759
130.95801 81.429016 361.71475
131.1499 81.399895 361.5383
131.09004 81.363258 361.1597
130.81999 81.523666 362.20248
130.98462 81.496407 362.15436
130.67964 81.507027 362.00229
130.24486 81.540497 362.49066
130.41902 81.557167 362.52368
130.33363 81.536087 362.23605
130.75082 81.558495 362.44434
130.92244 81.536736 362.33865
130.66061 81.529167 362.15646
130.68686 81.572609 362.68713
130.84254 81.568497 362.60818
130.59067 81.566551 362.54361
131.40541 80.912277 359.97961
131.55434 80.92189 360.02307
131.47487 81.04467 360.21216
131.60097 80.984093 360.13904
131.28409 81.273094 360.93982
131.03172 81.35865 360.97678
131.23416 81.323265 361.1257
131.18181 81.367317 361.32385
130.51367 81.544792 362.26837
130.99612 81.546631 362.53323
130.9308 81.561378 362.78531
130.81314 81.566589 362.89685
131.70979 80.984322 360.25171
131.75603 80.945221 360.13568
131.29221 81.170677 360.41391
131.56842 81.054207 360.38412
131.51979 81.107948 360.56857
131.27541 81.379143 361.48099
131.32686 81.328506 361.28384
131.65741 81.049248 360.55457
131.47084 81.161499 360.74301
131.42162 81.34082 361.43832
131.37196 81.388985 361.61993
131.07339 81.510201 362.30078
131.14493 81.51812 362.47876
131.22855 81.500267 362.67825
131.79861 80.876579 359.99106
131.90262 80.907936 360.12769
131.94478 80.837105 359.974
131.60976 81.105888 360.72507
131.79715 80.997047 360.54407
131.65651 81.174187 361.06497
131.7997 81.128616 361.02701
131.56267 81.163948 360.90378
131.51608 81.348511 361.58258
131.46318 81.38903 361.77603
131.25069 81.43882 362.0874
131.34396 81.442009 362.24286
131.3998 81.410744 362.03284
131.28905 81.476677 362.4407
131.99585 80.61953 359.77765
131.9756 80.737 359.86349
132.11778 80.689819 359.83588
132.15399 80.588982 359.70807
132.04393 80.860779 360.09845
132.22537 80.736031 359.93695
132.18602 80.813622 360.09854
131.6662 81.019554 360.39883
131.93781 80.946251 360.5141
131.992 80.909111 360.31894
131.84596 81.066925 360.84796
131.89015 81.002487 360.69147
131.60605 81.347237 361.759
131.54701 81.376869 361.99576
131.69144 81.333115 361.94937
131.77472 81.312935 362.14468
131.37105 81.453636 362.65002
131.65121 81.349228 362.61313
131.57185 81.37957 362.39264
131.30792 81.468979 362.89496
132.26093 80.64711 359.811
132.29166 80.54232 359.69821
131.38432 81.429565 363.10922
131.53284 81.378929 363.10519
131.72926 81.314697 362.83139
132.39879 80.58709 359.79858
132.4274 80.477951 359.69458
131.6833 81.324478 363.09985
132.54774 80.510704 359.78287
132.64664 80.553673 359.89746
132.88223 79.043587 358.5112
132.81726 79.075554 358.77841
132.97087 79.053932 358.70447
133.01944 79.000198 358.53488
132.79173 79.186668 358.85471
132.9285 79.118134 358.86185
132.36441 80.680115 359.92056
132.46294 80.700569 360.07129
132.59985 80.638725 360.05881
132.15398 81.169518 362.74426
131.85233 81.252823 363.28549
132.08888 81.179352 363.00443
133.07668 79.087578 358.81027
133.12187 79.02874 358.64062
133.15768 78.950607 358.50012
132.73409 80.570877 360.05652
132.77673 80.49472 359.91309
132.07625 81.205254 362.52167
131.93535 81.254898 362.54739
132.36769 81.071098 362.95636
132.26468 81.118675 362.88815
132.34402 81.070312 363.19385
133.26953 79.000526 358.58807
133.30321 78.903671 358.46457
133.22746 79.066444 358.74814
133.02837 79.139755 358.96899
133.0762 79.112411 358.98096
133.17709 79.099464 358.9303
132.8 80.390869 359.78723
132.90347 80.405464 359.94244
132.92003 80.288177 359.84497
132.86545 80.490479 360.08163
132.21414 81.146759 362.51697
132.23828 81.091896 363.47192
131.95883 81.198486 363.4863
133.41463 78.956589 358.55566
133.43578 78.834595 358.46231
133.41023 79.040871 358.69949
133.52336 79.001984 358.64923
133.37326 79.076622 358.89493
133.01414 80.301254 359.9874
133.04567 80.144707 359.95096
132.29149 81.111809 362.72552
132.34868 81.078049 362.52444
133.5468 78.878288 358.56564
133.56438 78.709175 358.53867
133.13492 80.204659 360.02628
133.11313 80.300705 360.16183
132.42517 81.04248 362.7327
132.23759 81.075363 363.70804
131.88754 81.199806 363.72061
133.67169 78.796555 358.60043
133.67737 78.604515 358.58322
133.65547 78.930733 358.65353
133.78641 78.85482 358.66919
133.24081 80.206871 360.20865
133.25555 80.113243 360.06622
132.502 81.004753 362.95251
132.47371 81.017761 363.19379
133.78847 70.780251 358.45032
133.93738 70.907402 358.45361
133.95134 70.761169 358.39972
133.89944 71.93782 358.52615
133.75993 71.984604 358.54099
133.99324 72.125572 358.66458
133.8083 78.721939 358.59628
133.76065 78.962631 358.78363
133.29395 79.942459 360.05359
133.39162 79.960716 360.1972
133.35797 80.095032 360.26907
132.57951 80.967346 363.17651
132.63536 80.929726 362.97775
133.95781 70.047554 358.37537
133.96684 70.247002 358.38049
134.10446 70.18203 358.37784
134.10664 70.005104 358.35855
133.97699 71.188187 358.26984
133.9126 71.23848 358.48471
134.07265 71.222435 358.41693
133.92018 71.430389 358.49222
134.05811 71.362518 358.48761
133.91461 71.620407 358.46719
134.04727 71.524544 358.51141
133.91785 71.752525 358.50974
134.02299 71.818214 358.5849
134.01688 71.994713 358.59845
133.91895 78.781311 358.68176
133.91959 78.655754 358.59973
133.89087 78.885826 358.79425
133.8475 78.953377 358.96735
133.45271 79.975327 360.33908
133.49986 79.819756 360.30716
132.71443 80.898689 363.18893
132.6436 80.94207 363.38947
132.79512 80.872688 363.38797
134.1851 71.28524 358.49796
134.1489 71.924095 358.61282
134.12175 72.219078 358.69974
134.05376 78.698357 358.70676
133.97856 78.877045 358.97351
133.80836 78.971619 359.23358
133.92982 78.926628 359.18042
133.57349 79.817612 360.47696
133.60591 79.673569 360.42447
132.8485 80.831161 363.189
134.23166 70.655434 358.3515
134.34972 70.720154 358.42276
134.33136 70.84845 358.49268
134.32541 71.002678 358.51785
134.31169 71.368973 358.52716
134.30821 71.172699 358.54852
134.07587 78.548798 358.64026
134.17372 78.615204 358.72946
134.14362 78.71962 358.83194
134.06155 78.839371 359.21188
134.10197 78.788666 358.99203
133.68523 79.653023 360.62146
133.64798 79.786804 360.68582
133.39433 80.582733 363.16864
133.31326 80.60923 362.96597
133.06612 80.742638 363.38892
133.00925 80.775177 363.5993
134.26816 78.627419 358.86954
134.30367 78.528831 358.75916
134.22295 78.697151 359.01852
134.18634 78.740036 359.26071
133.7495 79.627029 360.82266
133.77089 79.496887 360.75064
132.90166 80.789207 362.99124
132.8732 80.839798 363.59402
134.31578 73.733711 358.92343
134.30434 73.919388 358.92957
134.42764 73.811172 358.99219
134.29546 74.047363 358.98584
134.42281 73.951599 359.01581
134.29501 74.204353 359.00314
134.42142 74.147026 359.03186
134.32648 74.572098 358.76855
134.39876 74.282593 359.07629
134.40042 74.396606 359.17325
134.50517 78.401772 358.82965
134.59036 78.257706 358.75372
134.4321 78.511162 358.93521
134.35629 78.595596 359.10391
133.81018 79.186935 360.67288
133.78488 79.347557 360.70621
133.88579 79.203964 360.81891
133.90602 79.064499 360.76028
133.86862 79.338959 360.88367
133.84616 79.468338 360.95547
133.44269 80.554955 363.80722
133.54836 80.505638 363.62045
133.33655 80.610039 363.39691
134.5593 74.087044 359.01959
134.55743 74.245712 359.04041
134.0029 79.076324 360.90845
133.97498 79.196411 360.99405
134.0921 79.070656 361.0827
133.21776 80.663353 363.82681
133.17552 80.668976 362.96713
134.59302 73.433601 358.90775
134.7202 73.322021 358.95999
134.69193 74.199295 359.01779
134.03728 78.961143 360.82092
134.13249 78.965782 360.98636
134.15349 78.863968 360.85965
133.04684 80.7472 363.79016
133.60674 80.478188 363.39954
133.53008 80.518295 363.16751
134.82347 73.399483 359.03775
134.28668 78.09359 360.40924
134.2415 78.200256 360.50397
134.36679 78.115585 360.53473
134.41261 77.984047 360.47433
134.35164 78.208282 360.67807
134.21713 78.966011 361.14612
134.18504 79.064545 361.25909
133.66289 80.44735 363.16913
134.50755 77.990891 360.62802
134.46286 78.124947 360.69312
134.31694 78.342575 360.74139
134.48608 78.266853 360.80408
134.57112 78.162659 360.81091
134.31219 78.970627 361.31219
134.33383 78.878189 361.15613
133.71404 80.398659 362.9798
133.79535 80.36483 363.20523
133.84499 80.310196 363.02621
133.7361 80.406357 363.37784
133.81076 80.357872 363.30466
134.59027 78.011963 360.76422
134.42969 78.892418 361.2973
134.41039 78.990105 361.44427
134.53845 78.903862 361.47476
133.88435 80.244118 362.84531
133.96939 80.218544 363.06207
134.01164 80.151711 362.88858
133.9229 80.270187 363.25742
134.69867 78.015648 360.90802
134.36577 79.092766 361.53439
134.49713 79.017159 361.54755
134.34364 79.19062 361.67328
134.14082 80.049042 362.95309
